ply
format ascii 1.0
element vertex 691
property float x
property float y
property float z
property uchar red
property uchar green
property uchar blue
end_header
-2.1867122899010742 -9.396216421817506 -2.824187763185383 142 140 135
-14.409493983210453 7.106719025831054 -4.098022215663921 133 135 139
0.3850709447732373 -5.965838638023021 -0.8815623212105035 69 56 53
-0.6408618005620424 -3.527123851524017 -0.8859322131358224 239 239 231
10.983816697842304 -0.15479058352588257 6.573294599848744 75 74 72
-4.947884453649695 -8.092322619993515 -3.820940428208575 162 159 155
-1.067923536189501 -8.234678758862009 -2.049473848930828 214 211 202
-0.1541667855322911 -3.0731445906898602 -0.49536108641052445 228 228 220
2.343618828177709 -0.9095829279307919 1.1647120412580139 72 69 64
-1.3781311345104448 -6.674991015068408 -0.5504497850978534 214 207 190
0.8537762021423391 -1.1416199593790197 0.35238080284881906 101 101 101
-0.8945601078035929 -4.055711489038309 -0.40036458268492436 133 117 108
-0.23852091524767408 -2.832670386820061 -0.4742386266974469 227 229 227
-10.638794502125396 7.545341837910541 11.176090053372427 140 145 141
2.4782854874865694 -3.6838326674695243 0.6051582112219046 140 139 135
2.859687706559863 -7.85832547390891 -0.0618234783867507 118 118 116
2.9239587055669234 -6.562984418991502 0.2235020060848753 86 84 86
-2.1979895194759993 -3.9443044356246753 -0.38041278647663374 203 202 198
-0.12369304405283726 -1.403456861791668 -0.26116161461737913 97 79 75
-2.7775799370255876 -5.758154223866957 -0.7991638130250515 68 67 42
0.01924995820988845 -5.549178386079986 -0.9537144757936572 61 59 55
-1.031646280150096 -4.832677335080505 -0.19005715542587084 119 96 88
-3.06108675935334 -6.133320934345008 -2.2507033284998514 75 64 62
4.2934600691231495 -3.684801646508218 1.4166027533743344 236 230 224
0.35003889462373033 -4.560271343806495 -0.6490460083923608 147 148 143
-1.523337880188179 -5.64144694171298 -0.111749411044039 177 152 130
-21.917404738276918 -1.7081881798866416 -10.117607858403257 148 125 119
-2.2135659962879948 -5.353137663375956 -0.1518391305436901 172 206 106
-3.651126077064697 -7.130358148974955 -3.0764017861112993 215 212 205
12.468219095898759 4.747387183284591 9.782206523303037 41 39 40
2.120472284126774 -4.725641895132117 0.21165119306302133 148 148 145
-2.931750635875058 -4.191713952492414 -2.1161379864377983 144 138 124
3.1089517853538022 -7.123516211640395 0.18206476798154547 247 248 240
0.6395531627652259 -8.374818379915588 -1.2636924181273568 173 174 167
-2.6388177809931195 -7.354697135046245 -2.621005241824728 227 224 215
0.605945591963806 -6.689934354682491 -0.9296553864999683 77 68 65
-4.755943477335539 -7.431047422504965 -3.6016962474721774 222 203 204
-0.9148212684550749 -7.693059453344399 -1.7533948928063612 101 98 91
1.2940533542992998 -4.317392668370478 -0.09450079837784478 151 153 152
-0.11824381830830191 -5.063670648217622 -0.9487266833389641 54 51 46
-2.5084033468436666 -4.963404576431796 -0.18120353537751832 176 201 110
3.6292758019396163 -6.02408018690181 0.7589018312668985 120 122 119
-3.616034675962664 -9.444726912584693 -3.5238875561874985 210 210 200
-0.2427772759414547 12.694751470101636 2.317048303817305 173 176 175
-7.766689024343399 -7.304406893525602 -5.035973593214528 107 102 98
0.7355565431019281 -7.160131832272877 -0.9482187132630768 86 80 76
-1.5208379870733795 -7.032983027270221 -0.662032857083253 95 74 63
2.116869275718706 -5.8579699155015446 -0.025277751665616556 135 135 134
-2.412425658719726 -3.69834806357712 -0.6094444771428179 183 175 172
1.7639398239937054 -8.459374438810517 -0.8120350642394341 224 221 212
-2.2521756075363477 -3.467794658979524 -0.595157702545261 127 111 86
1.4727268192204641 -4.021914485200441 0.07104411877477569 147 149 148
0.5549466125495799 -4.2279804467193545 -0.36965701396379236 102 101 99
-1.2896138736215357 -3.8974573127140633 -0.4577982026334984 110 105 85
-1.3962533244249886 -4.40411684253702 -0.21661079427632313 158 151 142
2.4918522706371116 -6.741878391139464 -0.011849358788697854 136 135 131
0.49365402795382857 -8.256241487704147 -3.872413657713337 143 141 136
2.4840615242372945 -4.006546937369631 0.5447959000242207 191 193 190
-2.652136461268946 -3.9866662590017543 -0.5872776342836792 131 119 100
-5.175547111946055 -5.754779807640881 -3.4111315536890605 112 110 114
5.905057958662013 -6.605856416402539 0.8789596383674484 100 97 92
-1.1245161304832199 -8.629209637442496 -2.201014877823671 200 200 194
-4.348299914001422 -7.017139437028426 -3.3117167687626647 166 165 161
8.29170221124661 14.174970513945953 10.338548512423367 114 113 108
-4.818977442086186 -3.374669112209762 -2.7925876788727733 122 118 114
-1.0539620796381535 -6.84636954645261 -0.5982419750693144 199 173 149
-1.207255867167618 -8.070964806763804 -2.068638736694402 162 157 147
0.3355863272766875 -5.630121862081193 -0.7786307826974266 152 149 144
0.9921144159226082 -2.034630429750403 0.1337039285930086 175 177 176
-2.516958941702545 -6.431324078495833 -1.5448380550212528 114 94 83
0.7682518493230823 -4.724938389490795 -0.44868789913154833 124 124 120
-3.893112511196086 -8.069934575625485 -3.3370412887329626 228 230 225
1.8305408962654697 -6.838005237712742 -0.3608387126587191 164 166 155
-4.495123467086273 -6.233309068060285 -3.196047513342715 155 157 156
3.5238960900631446 -1.1256116657859518 1.7111903006679807 105 95 90
0.14446545771030633 -11.43749966681933 -2.323566647064469 81 78 73
1.314841307453977 13.395626857291653 6.94292491869346 157 154 142
2.2521917582078763 10.140476440120517 12.457880303935864 228 229 227
-4.743033796478547 -5.70179571289766 -3.1372076133502467 91 89 92
5.605797501065939 -0.7923548013238872 2.7185369859107245 221 218 209
-4.9320514784809335 -4.8211745882220045 -3.138517182995587 251 252 246
0.9225405820042301 -3.1831265941814495 -0.07266212413891417 222 225 218
-5.010233718242491 -6.159426206006203 -3.3981314096117936 83 83 83
0.4463653928787516 -7.135439467287876 -1.0645364376947386 213 211 204
7.796214332371231 14.772750687835732 10.23075259664256 133 132 128
-2.870892278738002 -5.875279389787056 -2.020528278873033 112 93 87
-4.132803950492818 -4.566574751381967 -2.7314716370899226 230 230 222
13.907308073637317 -4.598229997819545 7.0987316254541035 63 62 60
1.178742339448869 -7.559526812981746 -0.7930188083660278 99 98 93
-1.469738803230728 -8.485001006829968 -2.2949919428482812 199 199 195
-2.75632145835512 -5.1931973713818556 -0.4533286456739591 207 217 154
-6.569888571790893 14.477980959973857 -2.655597969287081 199 195 188
2.4322296456823715 -5.549345568920248 0.20174723157461816 232 231 226
-20.284387653857586 9.509874610626385 2.24014359374475 127 133 122
0.0701064819449273 -4.810578086144025 -0.824500112355161 167 168 163
0.4189481501440335 -4.51203770594013 -0.5560610591547526 66 62 59
-4.635873018325962 -3.3788371789066236 -2.6318509712515716 224 221 210
-1.5708212074128776 -4.281416319138872 -0.3410937958119552 166 168 143
8.163117703782277 13.685665047771083 8.553463093131992 177 175 170
0.34052394513538536 -7.2369074556566915 -1.1625851837584922 226 226 220
-0.9414336948544867 -6.829621096367586 -0.5102183330336584 227 207 188
0.5098628522316975 -8.160549649934184 -1.264733250583545 236 236 230
0.43890500067517224 -6.330059458718529 -0.9213763312400751 219 217 209
-1.5540802223102916 -2.975634386257106 -0.5698373278383564 101 73 64
-3.099122386980019 -4.139940816739898 -1.8081767757111264 222 209 190
1.3143317396547238 -7.937989833177416 -0.834055769824657 223 224 218
-2.0092261433097085 -8.066740220148523 -2.4693984398034843 244 245 237
-18.921634468672117 -7.242023437552783 -9.279075448576576 133 114 108
-4.9496853427363945 -6.689346369148129 -3.587526069560969 87 83 80
-0.7400199672342906 -3.248558253594964 -0.8665024431078295 114 111 104
-0.8767978483244783 -7.364984969827678 -0.16237127384516165 111 88 80
-4.478669796059917 -3.303881156675606 -2.7089617871627047 205 201 189
-3.1767422191673647 -9.632773201950066 -3.2501340578612927 212 209 202
-1.1302059871567471 -9.88946467759509 -2.6400290019256643 140 137 132
-1.1581924936246049 -7.808094131336056 -1.9071659615994014 90 87 82
3.5083529713572164 -5.980633088576292 0.6180376334548544 234 236 233
1.3261520822127784 -3.762219046001537 0.02041557111335286 130 132 131
0.20545097538867269 -1.2306861783859828 -0.07876942975757177 79 69 67
8.933696554709272 -5.297613792217497 3.365505543498571 222 219 211
-3.006374987393377 -5.074926549762172 -2.2545809722623735 126 122 119
-0.4670366794620206 -6.0929980113519715 -0.3921955533233579 227 211 201
-1.4175677844295513 -5.799816932474998 -0.15457514070627115 73 60 52
-3.613894832496914 -8.04474693289108 -3.210731460933091 237 238 232
2.30732637754368 -2.3391063570810906 0.7196375611675953 214 215 210
-1.1166473135538448 -6.794302250761816 -0.41417858650239425 237 227 207
1.3713139382813297 -4.569720513598495 -0.12333085363456286 120 119 117
-5.682324381408132 8.026205978354634 11.361328851934072 84 88 89
2.6619010956631293 -6.315197780733743 0.14333136197195445 232 232 225
3.068290197138255 -6.68399562366295 0.2466680684412185 91 86 92
3.0528997021395683 -6.0016940010571345 0.37859856839406253 234 233 228
2.4149002344484765 -5.159360516528517 -8.365867384037633 76 71 65
-2.998779684680188 -2.6210708645129492 -1.8015076927603362 117 108 102
-4.0075232983767775 -8.380187000251707 -3.4363450319652546 148 145 141
-1.0833499191771783 -7.489266049259315 -0.5693127883388281 63 50 44
-4.681837921996194 -3.5178479154152824 -2.888903296047933 144 141 131
-1.5530958734341513 -6.325352769523003 -0.31648284944493826 87 84 75
-0.17660786506977466 -5.925277318859042 -0.44488891028600963 200 176 168
-1.441264345306568 -6.896805449578083 -0.9617713156613746 84 71 63
1.069956702130034 -7.150771540100451 -0.7928633239291802 236 237 231
-5.881514787539377 -8.347476135474361 -4.551818607554001 221 218 211
-2.159805739482689 -7.512514233673151 -2.4219434517150975 153 150 141
-3.121980327895409 -5.60838257482314 -2.5581873089576943 159 166 170
0.47414009113104066 -6.946630889151928 -1.06104056658685 183 177 165
2.503988930732772 -7.146552749019262 -0.08852526375133074 100 102 99
-2.234600422516523 -5.8484720088192015 -0.24229292374928127 75 88 58
3.414927393501837 -6.937468591576242 0.38642669666244583 156 157 143
-1.1382985860951729 -6.982076953061289 -0.41129541012281556 179 119 118
-1.490199508792024 -8.061098869693355 -2.22593502498257 224 224 212
-2.866566902914751 -4.765050063605044 -0.9431921203224368 95 82 66
0.8269903558451306 -6.54166696041935 -0.7902519906088469 241 241 236
-5.870507472062622 -9.003085637828534 -4.578177087571755 195 195 187
2.7308991888088334 -1.9389509285190234 1.113509345483732 128 129 125
-1.1444865381128022 -7.653299461885197 -1.8946343489370763 80 76 70
2.650025344003414 -7.238904718254918 -0.04063966246915785 134 135 130
2.6231787371857345 -8.683416355062885 -0.5565468528040912 112 109 104
0.2985048364555664 9.44585352560705 13.945825103895867 124 143 186
3.0119593001554215 -5.815279130313045 0.4117822385226939 181 178 166
-2.859026183520649 -5.80799714020695 -1.9913382711352505 168 153 148
-2.849596888637968 -5.153834182411001 -0.5297055214790871 105 84 54
0.7143919432218289 -6.196867234780432 -0.7044202428788485 230 229 224
10.824897579084626 3.8548215160558783 5.944607811013543 65 59 55
-3.6952108705660396 -7.786255015939777 -3.1957869972193103 232 229 222
-2.9111353506285726 -5.6339299282666415 -2.1574059144202073 104 80 76
0.052237139717842156 -7.036811710376052 -1.2980943627465475 189 185 176
-2.575051099163186 -6.375024871309084 -1.6847986926017962 222 191 182
-2.3960084134203723 -6.14459086255028 -0.5688191865556756 61 76 32
-5.0170536672569055 -4.764494158616591 -3.2729958344256156 206 206 200
-3.1050507220379746 -2.5091574026892807 -1.852751601577606 103 88 81
-0.09540697541760064 9.053602074535648 14.519466302135614 129 140 162
-2.8683361913058745 -3.64398430613694 -1.229964555647877 241 225 190
-1.8284339635423765 -8.191541316020075 -2.3527370714853912 194 191 180
-1.3346636110842973 -3.286323385373426 -0.7707755077478646 129 98 78
1.3717292377940273 -7.58855779930668 -0.7237862847729767 237 236 232
5.574565537236727 -3.582289338671603 -1.8584003858367324 236 232 221
-1.0936273529961997 -5.119515922847897 -0.1525692282542277 213 183 160
-1.2441409845351512 -4.302323396014301 -0.2972622334197083 183 178 161
-2.9548768981244358 -5.998360828539997 -2.1011493937258297 138 121 113
6.070879779920993 15.366724452024407 5.053075231633645 104 103 98
-5.082376438867993 -4.952259195060528 -3.21127621260713 250 251 246
-3.8365979958244454 -5.980278141333236 -2.895999747998553 70 70 64
0.4732631901862809 -6.665230392223736 -0.9971486117791212 246 243 236
-1.1363536553372042 -3.1992841159620267 -0.6804616469338657 80 61 54
-1.6758577937853794 -3.7342159153335084 -0.48910406770215015 136 125 98
-5.695761864035776 -5.64381082713374 -3.641054838225857 231 232 227
-2.636025966679097 -5.694179085029899 -0.34827634987486555 82 128 43
-5.468627891884546 -8.187583977974583 -4.120820326472194 221 218 211
-1.6981105092386894 -3.9747876381393152 -0.4021009349009388 92 100 53
2.2696551528451616 -6.839327069700885 -0.1407507531209946 98 100 97
-0.23002170755218915 -5.639923552253997 -0.4391124185364785 196 172 159
-2.855439673927337 -5.906971854179531 -1.6292466873049225 189 175 164
4.675251841324765 -0.9721848255160823 2.2700699903625106 192 188 174
-1.8433159582125755 -7.63788981636026 -2.3584868854781007 233 230 221
-2.8334203387188666 -8.595602112687432 -3.066388145071408 217 215 204
1.8835477724020502 -6.666501288463709 -0.28479917771905294 121 118 112
-2.6143566817464623 -4.5484907460937025 -0.5171289451196744 160 170 137
-5.392055184667184 -5.763589650819962 -3.52000463184981 115 115 115
-2.2365741374389505 -3.6021670833633723 -0.6442027209054829 175 159 146
-1.2571186141355206 -7.042393556055457 -0.3999723496288408 146 88 86
-0.1281909528147675 9.269030873348875 11.178918492368288 194 204 206
-0.4202551420123724 -3.779146774043889 -0.795575428453622 235 233 226
-6.1362608761571416 8.358527211988974 7.9768616296491155 201 207 207
-18.374265560255157 -7.614110663257295 -8.781084291919644 127 114 106
-0.18170055749607333 -7.415750777132758 -1.4094802489605909 77 72 68
1.3934203874852034 -1.9058942264996677 0.45912527716893864 91 87 84
2.83156688365109 -3.62665869809854 0.7988057054801149 155 152 147
-0.9657613726411154 -3.0156936803031664 -0.3019613043580546 180 155 146
-1.7785408911782132 -3.9912148272682577 -0.39153998973487286 106 107 73
-6.975658510216545 -8.002668575667089 -5.05058324187833 177 173 165
-0.07610135277322692 -6.867773782359274 -1.162144911287728 120 115 109
-2.996450741970388 -4.784083550800709 -1.115536156903472 119 99 88
3.3255955022036643 -5.498860434075596 0.6577877904988937 199 195 186
-1.5127663535540663 -5.964827036391243 -0.22305724832694215 142 120 107
-4.417089437513389 -5.993522701371939 -3.058203240729703 84 82 83
0.988884126225216 -4.6658857086035175 -0.32553565663456996 112 110 106
-1.7342821862248698 -3.6445900685945736 -0.5126634052641053 138 108 58
3.080882392116401 -7.136959871562093 0.15343070451657026 223 223 214
-5.022500034208934 -3.2672014504134133 -2.85889616592498 132 130 130
0.3288801424529084 -6.222818022092754 -0.9375030670765645 120 117 109
-13.05291248432361 8.241986470392254 -6.171658019630334 208 205 195
0.14102379942477367 -5.646208118247054 -0.9117493483001751 56 52 49
1.5008504595149592 -8.940479103695596 -0.9551686572074509 72 68 64
7.243891791093264 -0.9011530927279826 3.3575012287601655 201 199 194
-1.3996868530900353 -7.1588119978157385 -0.5201502026899171 91 55 54
0.5561795051647496 -8.256824925467695 -1.2832101115786256 92 85 79
-0.33987589237428656 -4.523188023442572 -0.9102284750808413 130 129 124
-3.5838942199561417 -4.586964886326933 -2.5294432786365824 188 184 177
0.043323140575425384 -1.8242195509518313 -0.35251704060016636 127 120 114
0.2697172606453249 -7.3688927962510755 -1.2095752967588265 228 227 222
-2.6845562492213153 -3.3028629579441855 -2.00738217183166 225 221 210
-2.5835736942995835 -6.428683815842512 -1.7203178908973382 198 155 146
-3.368520259663419 12.251044725643492 -0.006658105636446576 107 108 102
-4.160684788438254 -7.144716201934391 -3.335914227861921 223 220 213
0.5821152604225447 -1.2109564938210569 -0.04322101815503056 190 188 185
-2.3751340566962282 -5.043480398380539 -0.09388649133787677 82 117 39
-1.6780016738275132 -6.657447062242244 -1.1398714833311685 75 67 56
-1.0218655337314 -8.292016416563843 -2.0495951302458004 155 149 136
2.846981657976284 -5.244006442988331 0.4579527146581873 217 218 212
-23.960365260360305 5.25748354017137 -10.174358056426568 171 170 168
3.3011020932234567 -6.820791205917356 0.3495957769142673 166 166 163
-1.618404835240252 -8.001079485660474 -2.2810848960020755 231 231 223
-3.39302034086448 -5.15588599058186 -2.743513241724025 187 187 185
-1.2745189242211616 -3.4900146502615725 -0.5461654054550146 244 225 200
3.2715070919348905 -3.4164077315258803 1.0617382046385375 98 96 99
-2.5506126460090575 11.595536434230217 5.542055580927879 101 103 102
1.1360944936003554 -1.9107803886080879 -0.010487920115253157 140 142 139
-12.259314491846585 -4.998063090567649 -6.833978336857217 87 68 62
-0.831964138956336 -4.861030649942306 -0.2965592449279337 95 84 78
-0.2506600568546846 -5.08018216781425 -0.6442161398203512 46 45 41
0.4008737226039066 9.24838692002003 15.32851637278195 192 195 205
-2.370360436436461 -6.707364145085362 -1.367847043762804 65 54 50
-1.1818794661370942 -7.239132539267482 -0.938397574583146 110 97 88
2.8364074014954572 -5.718015178849888 0.2680132728556942 237 236 231
-2.6961179599689977 -6.400750133461502 -2.2969854131786813 93 78 73
-2.728623320567113 -3.6176084296464937 -0.9123594368989785 168 135 107
-1.3249483270002893 -7.436118171643532 -0.36211336075971107 108 83 78
-4.221461581770671 -4.214970683861667 -2.7952119567388474 217 214 206
10.775603706312154 10.322936807221065 10.724750046566994 91 64 47
-0.15137481102568054 -9.060822752616494 -1.7927690839737163 227 226 215
-1.4532023491907917 -4.621026257124321 -0.04915267197178483 82 76 63
-2.9995389032696624 -3.5610117819262554 -2.0258643971893493 171 165 146
-4.695416118175241 -4.280020886259872 -2.804361363796688 183 179 170
-5.408044135974247 -3.2872366725760966 -3.128010002551136 253 251 243
-4.749137321615295 -9.079700952160518 -3.858184315849396 134 130 130
-1.9152813029108562 -5.629933592708978 -0.12487766778658971 154 156 135
-3.7829937930880497 -5.80203705316494 -2.827694611534611 159 158 156
-6.574723226265632 -4.246196212955965 -3.9750215030627203 239 241 241
2.8873792221538004 -7.5338936021505525 -0.07857866740458601 108 108 106
8.801129642907803 14.370972096104106 9.838592967532762 132 128 121
0.07960307847872734 -5.478465531685093 -0.9073937914793013 144 143 138
-5.2408825413465765 -4.1291568039926165 -3.266173010664913 228 225 218
2.7618752260282347 -4.420114896090494 0.5729042902955244 141 141 139
-2.714741395279809 -5.895897186236181 -1.1436771151152525 142 133 110
-1.049283514408755 -5.1473419883541665 -0.16641618587679577 65 65 59
-6.475408903069924 -4.003777113949091 -3.7033083120972963 223 219 208
0.9875745652137365 -8.377100978392143 -1.1023693574070657 244 245 240
-2.5073594672857005 -3.887559541097508 -0.6109439367608126 111 106 77
2.5662334289170796 -5.7398735258328335 0.2278342159044728 241 242 236
-0.6509632664816695 -5.860942361167221 -0.4148242766320638 135 116 101
2.721103720254879 -2.938356386918283 0.8287822396248157 216 212 202
7.281164406857279 -4.715190822582359 2.701859987643725 214 214 206
3.3364311355228504 -6.599383130894036 0.42045152301416416 226 228 217
0.8970194421999639 -5.013731423814093 -0.4451127745415833 133 133 131
6.551204435591701 -1.2960239445581139 2.9529456487829027 211 204 194
1.1175335756487623 -7.511186073473706 -0.8414757814834597 241 242 237
1.9891184106398878 -5.928602747944303 -0.0852607417949086 136 138 135
-3.0413606379999663 -9.788948299317562 -3.3062660092511478 172 172 162
-0.7442105818597344 1.8072890635668195 -1.1463890864537423 111 105 107
2.977785868102455 -3.23185557469983 0.9482753291963354 177 177 175
-0.2476988365698219 -5.425838162753066 -0.48306239756452013 239 226 215
0.2772431090416651 1.7272962981497135 0.11073809660161904 178 173 170
0.32257100442988085 -1.3972627084121654 0.015216806913417674 120 111 106
-2.6067208255985648 -3.6494357130392836 -0.6872774974156219 122 107 94
-18.695648631961827 8.883011039976916 -8.00219422365584 164 161 156
1.547083809170052 -4.519177385784877 -0.02644292485083389 55 53 54
-20.949161185272022 1.6635217369653394 -12.59869331333448 67 49 42
-2.068582674193708 -4.731289115342938 -0.13629050422597572 96 113 57
2.5100708230614552 -6.5934993715759465 0.010042833102842545 153 154 149
-1.3891435975117996 -7.199340093350907 -0.500274065791405 147 126 120
-2.104353826972463 -5.218700331781505 -4.047326155108715 180 181 182
0.7199009364951018 -8.511530225601515 -1.2077409650297644 189 191 179
-1.75364579506637 -7.797297019804399 -2.2744162421000205 235 235 226
-2.373732877133159 -5.369969309161449 -0.24251783042048744 169 213 115
-2.756371386353934 -4.279957032087415 -0.6066453133056615 113 99 83
-2.5279814086583023 -4.533356020886945 -0.43960386525783224 104 99 69
-4.150514342514691 -4.067930036207663 -2.733217943582882 187 184 175
-0.24694996584790563 12.667594990099984 2.317735049943782 173 176 175
3.171772099019983 -4.277741279109824 0.7701166251927626 157 157 155
1.1804220736602589 -4.683217376571917 -0.21830934458721302 203 207 206
3.2202794139691333 -0.5258165844880899 1.763718840464954 88 81 75
8.226940465988301 0.9033170525798185 4.525356703938923 88 84 81
-1.2528270023419452 -8.161108419201694 -2.097649977100258 144 140 128
-1.0699650567963226 -6.904731825067936 -0.763490904658484 190 170 152
4.045633766102663 -1.486672006930478 1.8633748561481418 192 188 177
-0.9003810798869726 -8.144563047931399 -1.9372464197861592 129 126 117
-3.8571317556357605 -2.8857082655104906 -2.450146925970022 237 234 231
3.014902607932146 -5.409652546130752 0.5107922723565231 180 179 174
11.832750526628315 -1.6103207918196847 6.915802474185432 44 44 43
-3.0524622992860015 -4.924747842504241 -1.5711284998861488 71 62 58
-2.641827328519923 -6.656195101632749 -1.8990998270758814 96 77 73
-19.04199685771286 3.3495583579337658 -9.748557047542073 115 97 90
-1.7814882300633805 -7.486674664010952 -2.2284857416341977 213 212 203
-1.2295877887851454 -4.8529301597702945 -0.16568921653033872 139 122 107
-3.1194840485531445 -4.982074692331648 -1.8434906897653236 92 87 81
3.3232874138517574 -6.946068113875749 0.331016069532983 235 238 231
3.4859542149002154 -2.842187113428329 1.2974897420123161 139 139 137
2.4087531802613005 11.049109414490763 -4.587664913266615 139 133 135
11.17101507190438 -0.8966624742170504 6.865973903310213 37 37 36
-2.036949976728753 -2.17826780920499 -1.2540505532339943 167 159 149
-1.3313073458737763 -7.303999574048218 -0.4656066307734338 100 81 75
10.678090978053671 -4.572025575356361 3.883517052224008 179 178 173
-3.2643878161563404 -9.444517896951597 -3.3359958964009224 218 218 208
0.8310798149462025 -6.500242383026747 -0.7814108671072589 138 139 129
-0.22213029930727027 -5.91121541105776 -0.41299557804814324 221 208 199
-0.5577599314070277 -10.447420966039228 -2.250743993748381 149 146 139
-3.20946287685183 -8.277439885939536 -3.171094304122699 235 235 226
-2.806563902018275 -5.207496613140672 -0.6259435902478622 107 95 67
9.20935908256147 15.261072851182353 7.3073373353942985 115 109 98
18.168688268998054 5.205244104514502 20.608441875803713 46 35 29
-1.1714778796136234 12.530486355824364 3.2374284390528776 140 139 135
-1.1192318827711207 -2.9269046890979338 -0.44631226153609993 85 65 62
3.235468497383909 -6.62293113800693 0.3481110112115695 104 104 106
0.6237403687137583 -6.548690738339093 -0.919320766873124 223 222 216
-1.766139593512545 -7.748800675361237 -2.2802190064364165 171 162 157
2.0527373384388437 -6.445578050963227 -0.17264017786784172 90 87 85
0.8475910388128863 -7.7454296971945675 -1.0006522709096168 234 237 230
-0.9666512401005756 -5.974965813166386 -0.19549976933021984 224 208 194
8.10373445623194 -5.068757263929251 2.9202552041375376 209 209 201
-3.607161714187546 -9.10254758988984 -3.43727298828512 237 237 227
0.24448451664724968 -7.4910282349719095 -1.2290055855106294 211 208 201
0.8263522182037685 -4.964806404597549 -0.47225745869912156 109 109 107
2.4475427907234972 -3.9560645426271566 0.6062292688841211 125 125 120
3.115668834042539 -6.231465611994998 0.3834044630440169 117 112 111
0.5658268492028999 -7.16868085437062 -1.0378498226727435 246 245 234
-0.6941000066577853 -1.986756749617269 -0.5759827606545643 111 104 96
4.241419016582082 -3.275309828545859 1.5665473191114183 119 120 115
-2.1421893090037565 -7.234749293237774 -2.354262818756949 95 91 87
-4.958328733750512 -5.305068813368916 -3.2438985741709403 226 224 219
-3.7996691378750738 -6.105663047192248 -2.947670896549746 149 151 150
15.411454355087807 0.4769000169761824 10.395249845464322 39 39 39
2.1878969911540693 -10.378039484734165 -0.8736913640964078 120 121 116
1.2355631793998005 -3.724376586927221 -0.04430799442749173 125 127 126
-1.8022224586595783 -7.800894588898752 -2.3116831128757593 240 239 234
-1.9565227322479595 -4.706757486271607 -2.206449212763425 109 104 100
-0.07623277296221823 -3.787865238348771 -0.6384698205007162 223 224 220
2.9370850532057275 -2.7677327707421493 1.016748108613258 192 193 189
-0.5677864783420912 6.034633380920336 16.380965900724693 117 118 113
0.17531649150162318 -8.31983507028186 -1.4882056952531324 94 92 89
11.397133364101153 10.72344695590046 9.195639683141039 101 70 52
0.403117517056417 -4.828570465216618 -0.6459265139358956 90 92 86
0.9909756951256428 -1.9267534381012965 0.15536190071104863 159 160 157
1.9791911761313237 -3.7243355861245484 0.39168764886824586 156 157 154
0.559585460088786 -6.0515782325805345 -0.8340223849690312 81 70 67
8.143349173939653 14.459700536694392 10.638311878172866 152 150 150
3.74222358880342 0.7526941339509946 1.4847097429634122 229 231 232
-2.7413129681824597 -5.32346971918987 -0.6347156697468306 106 114 65
-17.89182698670671 -8.924822176918381 -7.19596720000362 118 42 48
-0.7299913001299525 -4.966354485482578 -0.2765000214773101 119 96 90
-1.0990070672290588 -6.264438009152073 -0.2699078364117154 171 160 146
-2.2068619513504295 -5.631824470825239 -0.10154620927938732 146 209 76
-2.6910984042889825 -4.490842754307856 -0.640058976194027 166 169 152
-1.2124753054692357 -4.113021781970482 -0.38314998130284844 164 160 148
2.9344283312500887 -3.2973464088413045 0.8779852298272266 182 185 184
-1.1531189753699873 -6.885035055865945 -0.3293123590915664 227 199 184
3.082970800970217 0.9804964444081339 2.1010564721508294 61 52 47
2.5099046330526655 -5.582199011814262 0.22133767554121628 208 208 203
-5.2849730004143245 -7.887422040259324 -4.034447225257293 164 160 161
0.9839175189691899 -7.1739467322040875 -0.8458165915049988 223 222 218
-1.1342051875300907 -10.41830366607534 -2.532347390945903 128 127 123
-2.9457053716483466 -5.325613966983313 -1.2585785974432302 157 147 145
13.35465990581545 2.5164943715271235 10.305253501579886 28 28 28
-4.630817014789165 -3.230741686278259 -2.742634874673915 221 219 206
-4.745206683905941 -3.1491189453102324 -2.7822570403467686 247 245 230
-3.4760602913309206 -7.9953186365615645 -3.11999048535929 222 219 214
5.4045242099685895 14.225796056299952 13.12602621231542 144 149 152
-6.595479961121141 -4.368610095986383 -3.8605448828696547 235 231 220
2.702571898888116 -6.2646504358624835 0.19257957083015909 234 236 232
0.4979857554847075 -4.121858255575841 -0.4340919181429747 168 169 164
0.5738459653073171 9.618813534633983 1.3759029775788354 218 216 212
-19.193370598885696 2.081563083911015 -13.157627965643984 104 58 45
6.668030750260407 2.170892958264296 3.6429654460543155 114 94 86
-3.9125225661727026 -8.194471752937135 -3.373562084070178 236 236 226
-5.117827858471215 -4.500758051302723 -3.14300299721523 116 111 108
1.745119652621112 -4.9250695630649615 -0.01791929377931687 105 106 101
1.9968827048006024 -9.793336805027522 -0.9721124331701245 156 156 149
-2.5098351838448774 -6.551288662340744 -1.5318364224711865 202 175 164
0.3680094206516858 -2.6439953778847385 -0.24450422393317287 192 193 185
-2.8613554411238424 -3.5697308270523664 -1.069549599273681 198 183 165
-3.8699728179837947 -2.821023994471367 -2.3108276083534416 98 87 83
0.30597432573314415 -7.467981333933604 -1.2374280287778505 134 129 123
-8.309454213145955 -3.8979890716668915 -4.724387704428719 116 99 88
-8.75594713875897 14.969856968974277 -1.773090991213209 158 159 154
-2.0213421604365513 -4.3007787156742685 -0.28285502122537737 157 164 131
0.36975990767822947 -7.849680284930671 -1.2458801545895244 238 239 234
2.7120878351969004 -7.317986126364362 -0.01860478233086717 153 153 151
-2.95457384483019 -5.22542696079136 -1.2942631162728713 150 131 124
5.513328872650405 11.8046351051872 4.1651504932065775 209 207 194
-0.5850583846072961 -2.9404729444076994 -0.7099106272652017 237 236 231
-0.9667214046445562 -1.601390601604574 -0.7178868249058515 88 74 71
1.1045264674756496 12.99558261401352 7.36856730153091 95 96 91
0.7453415082296899 -6.6712743639456145 -0.8216134497695115 222 221 216
-4.727121349144129 -8.09670251776377 -3.7783859682581746 241 242 232
-4.285401111617169 -6.991433565896519 -3.3532791356716665 113 106 100
0.3787223083505189 -6.677930084797501 -0.9394513895411438 230 226 216
12.189949415669101 -3.7650948122740644 6.9108122927632705 172 170 181
-1.5563804460366504 -7.760505734073902 -2.173924455073991 236 232 221
8.218381777143598 9.9623866440382 -10.30509161214592 159 159 157
-6.720386929945733 -8.03753240592124 -4.800422596180376 165 165 157
12.430320101776566 6.988655145921388 13.544638954599495 126 116 114
3.241989197100049 -6.944465540982299 0.29801727391583377 251 253 242
-3.5708144275388145 -7.23151576925204 -3.0564059567371205 239 239 231
-3.2542464639283732 -5.976351896580923 -2.2291438675635704 66 59 54
0.02428486029467788 -4.82709626929746 -0.8140600164363664 182 183 179
3.2074208528164814 -7.106183386378761 0.23373931475531623 147 147 150
3.9424930258368804 -4.367700827368093 1.1859337595454686 140 139 136
-4.199922139800536 -2.9859260287676697 -2.5196878188358363 214 207 196
-0.6595507470518436 -2.699490613836248 -0.7166985068569028 246 243 236
0.37674769113683587 -4.760134404490983 -0.6213499077533803 201 201 199
5.423547286618944 -2.6738026495657183 2.2464453316015978 145 144 140
0.8471814100703035 -8.585628243469005 -1.23588885932474 248 249 241
-2.780236158931012 -6.245821387832821 -2.0246551153625947 97 74 68
-0.7528948591582356 13.122937820213442 3.0033047086845706 160 161 156
-1.1481346908628163 -8.360176079470708 -2.1845550213852647 205 202 193
7.722032373239196 0.058895925845949736 3.9020568409769494 118 117 113
-1.0173706708331904 -5.561946182669984 -0.16092764748404412 237 223 216
2.844809048851145 -5.152794846715707 0.5044270726119008 194 193 189
8.077219844982709 -0.2976396152799361 4.031860416825125 143 142 138
-1.38891396317356 -6.891528791943717 -0.5928209912037814 241 232 224
3.268012022035782 -2.717733693164108 1.1925243640028005 131 131 131
0.9283464240566847 -7.02741881513587 -0.8363359438419297 245 244 239
-1.9730133220988544 -7.946945060079901 -2.422360159018424 181 181 170
1.0534695918606607 -2.1893393765093463 0.14980044116868668 111 113 110
-0.9477182947811226 -3.2712704392261496 -0.8078574935605098 105 87 72
1.5325543993027437 -8.068746237748268 -0.7611447459412832 237 238 233
-0.711767777439426 -7.676823761739859 -1.0336347842822846 215 213 202
2.7682747287067766 -7.163837366302135 -0.009389623021995782 184 184 176
1.4070312594561845 -7.406828991746242 -0.7405752975324735 240 240 238
-3.047311857056618 -4.470602837522893 -1.041141520217839 100 83 67
-2.6297065776716617 -10.02528451639721 -3.1648094985808126 108 107 103
0.872611871637515 -8.471483284403288 -1.19673332104731 233 233 225
0.8083725559389525 -5.991378881062189 -0.6809123597343942 175 174 170
0.05140742032713178 -1.4715632736381965 -0.005873437219194363 109 104 101
-1.308290422563744 -2.4501938917998594 -0.14857109580586708 113 106 98
-9.049420892565728 -5.673264397400642 -5.398545435554716 122 119 114
2.242985637049426 10.043373005910997 15.148722249722404 181 186 187
-4.202505294631783 -8.157795779230211 -3.4414781623149837 242 244 239
-1.3856176148140558 -4.6647759857563935 -0.12094980814716304 135 127 112
3.1331864763517685 -7.625020837500892 0.14640278556348582 216 216 210
-3.3334568154892463 -8.874078940658467 -3.259530070876888 218 216 208
-0.897791693424217 -7.23847349868675 -0.45195590727082896 91 69 66
-2.2298730142218743 -4.82216183356609 -0.08278606577202013 74 91 49
-3.352486658854563 -7.879355547664497 -3.008488023812289 227 224 215
-4.955153297999133 -4.159689421546602 -3.301107944283155 219 214 206
-1.179338474110106 -5.073873421312094 -0.1731194949323962 145 96 85
4.991717138363655 -0.014363205487215317 2.5084545431966054 138 127 121
-2.649761063024827 -4.387750627808495 -0.6983219582337813 190 187 179
9.391156076773733 15.630297942623436 7.382102792765933 98 95 88
-5.52764979135946 -4.018798899752689 -3.2694297755991983 227 224 215
-2.376070361241151 -6.011907419979869 -0.45738575304175255 71 88 47
1.839518141424244 0.6757714403698142 1.166282313629574 102 75 67
-2.4848915990265046 -2.358250594999501 -1.450198470155492 147 135 127
-9.731686329265951 -9.708601134973923 -6.546145151228806 192 189 180
-3.5078819606474765 -5.935765732213008 -2.7848222460118257 189 191 191
16.30261276505642 7.928674251832434 8.418480739228242 123 114 109
-2.3306541670348566 -6.538968435608753 -1.4116693538244744 85 71 62
-0.5920794850440629 -5.657497352278987 -0.4676135516917701 100 78 64
2.4640721121438 -6.786302351920314 -0.06064838549374258 66 65 63
-3.0359337543262868 -5.075522464623248 -1.533096879523572 81 68 67
-4.852061256071372 -3.321201212926455 -2.8813106612540804 228 224 215
-2.8354754934087927 -6.174131185790678 -2.099369396760344 72 53 47
-19.84243439719375 1.2716449173856141 -12.964627031138729 109 75 63
1.8772563774464701 -6.394635572555341 -0.24720511396111014 141 142 137
-0.76740642293593 -8.12538265524997 -1.8636875829058637 236 233 224
-2.63380744936784 -6.013631382954221 -1.144784679057961 170 151 134
-2.019610569267151 -10.014901876642082 -3.2500472786983714 134 129 123
-1.148791553502958 -6.273024876564933 -0.3027139887417437 166 154 138
-3.733793639331152 11.513724777265498 4.372811455629071 222 221 226
2.231125996409587 -1.9818387843321021 0.8949131626731011 206 202 191
-3.9162085710161074 -8.73928443204625 -3.4849814625138316 191 191 184
0.34220492491423954 -4.572658527152343 -0.6301069707589543 143 143 141
2.2821958645204328 -8.273482985529666 -0.43733403656457415 192 193 185
3.12773141700343 -5.2960457730782355 0.6290128600905316 233 235 224
-2.6962782334557573 -5.921627966933512 -1.9023839634470208 91 77 68
0.40844736785518093 -7.771946369906184 -1.2369027532371928 80 71 67
-5.093782230276204 -3.294701235621025 -3.0132643781732624 175 168 150
-2.0084556780026968 12.162707377801153 4.1477389035328445 79 81 80
1.3233552337176535 -3.8538856279411333 0.0037282834848793456 153 157 158
-2.505858332446508 -6.167675469011082 -1.5104587161762415 146 121 101
2.617008686420828 -9.973549586684273 -0.804028360692368 115 116 111
9.479892943202161 2.2970870188622268 14.109269101357263 53 35 31
14.787901169015898 2.933283247947663 13.70385382884331 36 31 28
0.5461117084497964 -6.744470392459152 -0.9599385318275382 227 227 219
0.22061783972649923 -5.883083003032659 -0.9332211423772638 48 43 40
2.923530143213518 -4.28312560533466 0.6877561217610563 113 112 113
-3.1492621508409573 -3.0056680937369746 -1.9867232595732465 215 209 186
-2.663878001138553 -6.274785390605365 -1.8956003865415079 165 137 125
2.8255709324850193 -3.17213839559534 0.8374348817944063 187 187 185
-2.456104354918815 -6.012095901935513 -0.49069291722241143 90 104 68
-5.839247008262808 -4.4301564051800355 -3.522231894777367 159 155 152
0.48330362903252333 -7.233372159305775 -1.074910372653688 83 84 77
-2.0809089399051275 -2.287407233211379 -1.2522599496589653 108 99 89
-2.49192076915456 -5.800153034439954 -0.41585091807524827 160 159 155
-0.15966032307890254 -5.973167463194975 -0.40409552336550597 110 88 77
-4.013803917799227 -6.348447117269306 -3.3595320261433326 157 162 166
0.004512679911095178 -3.38810477246329 -0.5118704599609707 227 227 220
2.4635595255245253 -5.457738442790915 0.27106840603044063 217 218 212
-0.707239684538436 -7.026772988915489 -0.47367804959701504 133 82 81
1.0010069050720716 -9.492855273243425 -1.278586465537048 118 117 112
-19.10669870548557 -7.5372128747961655 -6.970402022607025 78 32 34
-0.6616965236727679 -6.008293003854474 -0.3903854892976804 99 78 65
-1.7992826373941448 -8.737809599991047 0.3955813317474028 137 137 135
-1.7312341508782978 -5.824355217739923 -0.14963803801013037 162 158 127
11.549851299649104 3.6032502467523893 11.390173045535521 33 31 32
2.344404615756785 -6.620516217753811 -0.06024543497116994 142 144 143
-0.8377899495781421 -7.5977005924009795 -0.8710544203122667 86 83 76
-0.7275042439137869 -4.571810381045107 -0.3365259451711447 149 136 128
-4.135119544115173 -7.922201826811422 -3.4203389934214026 196 194 189
3.166721136271733 -5.538942778772377 0.5504182892428962 175 176 170
1.7683298208423266 -7.152891101246106 -0.4663944871624851 145 146 141
-3.197014608426317 -3.0911056547707823 -1.9629465144027063 207 207 207
8.448098485232647 -4.821157093643272 3.697583538743048 76 78 75
2.3742974524126605 -6.85594252493505 -0.11132694379652366 129 129 127
-5.518218942495378 -3.348400239220536 -3.179519054292774 216 209 193
-1.946130182381683 7.411408886663814 1.8945752332784613 130 131 125
3.3232874138517574 -6.946068113875749 0.331016069532983 235 238 231
-2.001077433528949 -5.30324405512528 -0.07074643659107173 180 188 131
1.1254225664179052 -6.196564821710223 -3.894551846582147 76 75 71
-2.5924839697018682 -3.832763358668733 -0.6767702734549796 151 146 129
5.208355019157596 14.411771255510528 13.227627893007918 127 132 135
-1.6862595751061054 -4.978559137849798 -0.11637074882180976 187 186 147
0.5954663084698196 -7.165716454981941 -1.0013763560300923 234 233 228
-10.954517827351385 11.618218231674355 -4.169333642390423 125 122 115
0.7355565431019281 -7.160131832272877 -0.9482187132630768 86 80 76
10.56016561951988 -5.630453807731174 3.85812774196408 75 77 74
0.7174567138785136 -7.781173696851905 -1.1273441230164274 228 227 222
-0.505912075189139 -3.5281940845023274 -0.8185240585157968 232 232 226
3.1825845994192106 -1.2568145624355969 1.6655867342983266 82 73 68
-0.024625890985107136 -3.4923121515460798 -0.6044189207982372 241 240 235
-1.9176007863152849 -3.4329186003089314 -0.6265467856111795 145 117 80
1.6926543982505025 -9.211000407265836 -0.9861730330721377 131 132 134
2.4109554493522953 -6.803138322335655 -0.07703140159862823 70 70 71
-6.619341948252811 -4.431567611689001 -3.9816423792397453 202 198 187
-1.4078834819996422 -3.079289454708108 -0.6281737078103203 86 69 54
3.75016559671096 -5.433930644107681 0.8383651381778819 94 94 94
2.2335723770465834 13.7701452357845 3.4030822187053236 148 148 140
-3.886627276447983 -8.35916091801857 -3.346494812630992 133 125 131
-1.4178608868312788 -8.21043844608559 -2.2077049297723534 235 235 230
-1.9250655319182617 -3.7514308871001405 -0.513294762240378 122 113 82
1.1471872231718565 -8.719566295642958 -1.0662601114437575 226 227 222
4.841644167026851 -4.291257609521257 1.6500005957826096 187 184 177
-0.823581623425539 -8.010452977662599 -1.8655432261075287 206 203 195
-1.2602953425581873 -7.263626342924556 -1.9482994943790204 56 51 45
3.021682035703423 -6.780904812126636 0.20993340204074662 199 202 191
-3.020502272012896 -5.590466017158704 -2.445222957739611 83 78 75
-7.80743875334651 -4.518310311329156 -4.659759206350916 173 167 155
1.3917976308160305 -8.32255358754165 -0.8135634612639284 190 191 184
-0.05352362664167007 -7.851125766308685 -1.539678044043571 86 85 83
-3.705230467771256 -6.226419767257029 -2.8208660136802624 111 111 111
-2.820401072940876 -4.274153384184333 -0.720372922765464 80 61 45
-1.3495219927329116 12.133733598722399 3.0060365403233265 61 63 59
3.2787577444574736 -4.199701413072962 0.914778065229109 108 108 105
-2.580312176221771 -6.380632441027424 -1.6712052680374248 230 208 197
-4.53267216875406 -4.806026418444094 -3.042808888326983 102 98 90
8.255626225614161 11.025921297673584 5.649528314913158 133 130 121
-0.020612340096374034 -6.337675246012994 -1.1747984072175792 50 47 42
-0.26082605781196866 -3.3726508573451306 -0.6816263663632676 101 100 96
-2.6550356529321455 -7.848203271548142 -2.751581014204855 212 211 206
-1.832668640868983 -2.8723082229380736 -0.8038606692314795 197 188 171
2.487702513975171 -3.6448962455210325 0.6515556559571978 135 136 131
2.7343167678186524 -5.945451419912214 0.25222622295042463 144 139 135
1.5548292847251266 -3.6797295314958043 0.1338995335682498 134 135 133
0.09730022990557075 -3.3947643828685523 -0.5381340730351443 113 108 103
0.02428486029467788 -4.82709626929746 -0.8140600164363664 133 130 123
11.721161211489713 2.2970720629896966 11.115111202389876 44 39 36
-6.307572229727324 -10.10037307394272 -4.605106038883714 194 194 186
-1.9048863394328965 -5.14243034688256 -0.0625896207531876 115 94 72
0.422997656297516 -9.289599412072443 -1.5433894433861894 125 124 122
-1.6098916384739266 -3.4211280970342246 -0.6381570801667489 182 139 78
-3.9614336184302283 -5.708288621542663 -2.9349996734488033 164 167 166
-2.7604034772139543 -6.336372877770917 -2.421459685464921 73 68 64
0.3950189654562366 1.9470079401891238 0.2784050786607703 67 49 47
0.162238643111584 -8.255133623901918 -1.4817373602613513 104 101 96
0.35654040844337376 -6.366220767173289 -0.9689605356873824 72 64 61
2.1431095417690234 -4.8885722363419335 0.22767443539894563 137 136 132
2.4704437302594164 10.425688033534387 12.234536681063592 241 241 242
-0.13956985359624102 -5.603713946143777 -0.4613930515870801 140 113 97
6.1436411949565235 -1.4078358089847385 -8.57361889076232 95 90 86
-22.71058450542281 1.739091037498261 -12.952815187478624 58 49 44
15.63914113483189 2.5831124292952397 14.038300625481764 57 49 47
6.157282225218409 -2.624999372333961 1.0764567632312851 128 127 124
0.5752952472432953 -3.7267927742800504 -0.3545915464774978 216 215 210
-1.9167306897677319 -6.211383357294432 -2.633520671145847 128 124 121
1.5569806089581926 -8.355066529305054 -0.841644508369412 191 192 186
2.1564393142426295 -5.945890088360726 0.06695656608795629 151 152 154
5.2884870480677 -5.859830659916531 1.2663660738602134 210 209 204
2.811144121462663 -7.345450878364291 -0.008794359512541771 186 188 187
-2.739452238628126 -4.560515248773853 -0.630161083729603 185 185 176
-1.3706557336152547 -7.083034327925726 -0.4701030955263611 157 108 104
2.7263338001806545 -7.944985635231252 -0.14885589049025502 95 95 93
-1.8324084942052903 -3.907979432106512 -0.44116453633674596 166 170 144
-1.5836683649144756 -6.186840689373201 -0.6344835434798 76 65 59
-3.835221211908049 -8.207484294679857 -3.359277150697203 156 151 147
-3.2169650680715414 -8.224404125178154 -3.0939849006630666 227 228 222
-2.637361409843707 -5.502020445095327 -0.2870852732539013 86 137 37
-0.8181090777383505 -7.389555765122543 -0.15811425396881218 186 166 151
0.8634684759282019 -8.557060480524544 -1.191254203552494 164 163 153
-1.7371927012053627 -4.36840573528015 -0.25084176469520897 160 158 136
-2.0129218013811276 -1.7281792743633493 -1.2217831115008453 104 85 78
-0.5928274844353255 -4.524488704133059 -0.37851576503846673 117 106 89
-2.3454376576882425 -6.71538509103115 -1.5437872381188045 55 46 39
-4.025904484599302 -8.522163018504171 -3.5110499357555103 115 109 108
0.6568405435892917 -4.180805506983599 -0.3761206017398358 154 154 152
1.7129255010898372 -3.9963680140467845 -0.24248319857430709 162 168 168
-2.807525462443947 -4.266567490978119 -0.7253545760797302 80 61 45
-4.390914644474643 -4.852290163156547 -2.901358391527987 253 254 248
-5.0281989036162305 -7.83781892820289 -3.874157384615034 201 198 191
-0.13783884588663936 -2.8970933955588403 -0.5105848331339935 253 252 247
-2.0962274912555987 -7.536700177214178 -2.4082127341694863 151 145 144
3.006007726919777 -5.260981354329481 0.4976975133217212 216 216 215
-0.7231341625197428 -3.7558419155115703 -0.9475560169536663 150 147 140
-2.838631658692755 -5.854047358643486 -0.5003517446052734 124 123 119
2.8586749793006816 -5.606495697139551 0.40701105982146596 238 238 229
-2.000901128627757 -3.4544609413945997 -0.5889557129430543 147 120 80
-3.055512016674206 -4.387957102275982 -1.0828451910461365 93 82 66
-18.34874296622944 -8.14532126726553 -7.034150781963943 126 111 104
2.725906775371329 -7.221182341501785 -0.0056286829504201856 116 118 117
-3.968764438659653 -8.01067420137653 -3.363134609171369 97 95 98
17.515970025060113 4.835728109411188 19.886691369447508 47 36 30
3.092642446338704 -4.026183953489654 0.8130078334392757 204 206 201
12.488958202892897 -3.0338867360483164 7.330813016934368 136 136 146
-15.032503762376965 5.111454417213193 2.835282955950269 197 203 199
3.6891030294243863 -6.783521054749611 0.5708260550188764 240 236 228
-0.4873355350879795 -3.554501955628767 -0.7980256632727094 239 239 231
-0.9280865962628855 -7.21944084983409 -1.8290424215759657 90 85 79
3.3424370100141574 -4.557084700940863 0.81164240485202 119 121 120
0.7661951358952024 -9.248911179160801 -1.356313749444563 143 140 134
3.4973844733591717 -4.652270648916723 0.8788678151056074 111 112 114
-2.1896558046927233 -5.351164363193177 -0.0728904684249054 97 100 74
-3.0848600847280974 -7.910341103177935 -2.993937029314397 202 202 200
2.103117747985141 -4.095084266246815 0.3270639876482743 183 184 185
10.534223257226376 2.389825312807522 12.280509069401088 32 28 25
-4.2556772697806675 -6.098203962719423 -3.087870777235409 168 169 168
0.8175851349278849 -6.059683748281754 -0.6656180278255209 235 234 226
2.863407456651099 -8.81420413187541 -0.2703121873714838 88 90 89
-1.96828636660861 -5.561821152073037 -0.0862342781857405 82 69 42
10.644864486127473 -2.873868129380058 6.215184140696535 87 86 84
4.061758903275976 11.605690312794339 13.826686487457248 223 222 217
-2.7934309792716614 -4.065994322160391 -0.7509774786355699 163 161 145
-3.9724447085213668 -8.409389555973377 -3.352256491054645 223 223 216
-3.6176816061647936 -9.244147603376533 -3.4585270746300223 221 219 210
-3.8970971955286475 -6.371638318803431 -2.978099243764784 159 159 159
4.5420105840481275 -1.0094728287841908 2.354080908192997 207 203 191
-1.2172038160601932 -6.660676035819269 -0.48471310124639616 175 146 124
-3.279596276639382 -8.720070867173533 -3.6423297700221213 222 222 211
1.953767492562908 -4.089316269238569 0.26455168538479484 67 63 62
1.2731150522758563 -4.902068208752542 -0.21388876198319548 144 144 142
-1.3901325624111054 -5.735796782047 -0.1277167526273237 223 206 192
-2.522339275853577 -6.035101748803011 -0.6293018435562023 92 117 61
-1.4558077485829433 -7.333350540096007 -2.0376382564126807 108 103 96
7.626481000686739 -5.633609479690558 2.3397694461175833 200 200 192
2.542250266791802 -7.090586256649903 -0.05826096051132475 139 139 137
-3.277433794755515 -9.300861771503525 -3.331201028863409 135 132 127
2.8577783934734997 -5.606237657201439 0.39550496260261003 234 235 229
-2.3964121136599004 -5.748504955404986 -0.2231702676344451 90 111 71
2.084693783188023 -5.8049933361105674 -0.018657497776601174 151 152 148
1.3781947342675047 -7.688381816191678 -0.7884078967993334 159 153 148
0.9910046710889807 -7.265487328554897 -0.842926674522895 219 218 213
1.363367402888787 -8.338881225296346 -0.9557801290096443 211 208 198
1.4266165670176993 -9.746302075266735 -1.2412769242293176 67 63 60
-1.8184514208559446 -8.897169367218577 -2.5168650193034456 193 190 180
-1.4520945249126291 -8.003991661093812 -2.165763269094067 218 218 208
-4.102112819259536 -4.641829718670852 -2.7947643085358784 176 173 163
