ply
format ascii 1.0
element vertex 841
property float x
property float y
property float z
property float nx
property float ny
property float nz
property uchar red
property uchar green
property uchar blue
property uchar class
end_header
-1.0468 -7.3068 -0.6794 -0.460 -0.862 -0.215 122 112 107 0
-1.0400 -7.3066 -0.6964 -0.445 -0.855 -0.266 125 116 111 0
-1.0138 -7.3044 -0.7312 -0.434 -0.841 -0.324 122 112 107 0
-1.0089 -7.3046 -0.7482 -0.499 -0.831 -0.245 115 106 101 0
-1.0007 -7.3052 -0.7824 -0.546 -0.776 -0.316 116 105 99 0
-0.9892 -7.3043 -0.7998 -0.648 -0.693 -0.315 104 90 83 0
-0.9832 -7.3043 -0.8170 -0.708 -0.690 -0.150 97 83 76 0
-0.9756 -7.3041 -0.8344 -0.620 -0.638 -0.456 113 102 95 0
-0.9694 -7.3041 -0.8516 -0.721 -0.488 -0.492 116 105 99 0
-0.9868 -7.3079 -0.8676 -0.986 0.030 0.163 110 98 92 0
-1.0094 -7.3124 -0.8832 -0.782 -0.603 -0.158 120 108 102 0
-1.0068 -7.3130 -0.9002 -0.877 -0.330 -0.349 119 109 103 0
-0.9906 -7.3114 -0.9181 -0.900 -0.048 0.433 113 103 96 0
0.1262 -7.1534 -1.3314 -0.300 -0.082 0.950 192 189 182 0
0.0820 -7.1614 -1.3461 -0.293 -0.130 0.947 178 175 168 0
0.0262 -7.1713 -1.3594 -0.182 -0.389 0.903 185 182 175 0
-2.9079 -7.7292 -2.7475 -0.456 -0.350 0.818 202 201 197 0
-3.1945 -7.7841 -2.8908 -0.451 0.001 0.893 229 230 224 0
-3.2492 -7.7940 -2.9078 -0.511 -0.326 0.795 213 212 207 0
-3.6668 -7.8752 -3.1370 -0.958 0.266 0.104 238 239 234 0
-3.6793 -7.8776 -3.1432 -0.790 0.308 0.530 231 232 227 0
-3.8273 -7.9058 -3.2147 -0.934 0.336 0.123 219 221 215 0
-3.8370 -7.9092 -3.2447 -0.911 -0.082 0.405 220 220 216 0
-3.8400 -7.9102 -3.2547 -0.900 -0.306 0.310 197 197 194 0
-3.8564 -7.9131 -3.2583 -0.965 -0.260 0.018 156 153 152 0
-3.8750 -7.9163 -3.2607 -0.850 -0.511 -0.131 128 123 123 0
-3.8670 -7.9158 -3.2761 -0.622 -0.777 -0.100 130 126 123 0
-3.8495 -7.9148 -3.3077 -0.407 -0.870 -0.277 205 208 202 0
-3.9499 -7.9316 -3.3147 -0.764 -0.139 0.630 235 236 231 0
-4.1068 -7.9608 -3.3790 -0.552 -0.602 0.577 210 210 208 0
-4.1154 -7.9626 -3.3854 -0.752 -0.586 0.303 208 208 205 0
-4.1224 -7.9642 -3.3927 -0.754 -0.624 0.203 205 206 202 0
-4.1266 -7.9660 -3.4125 -0.677 -0.677 0.289 193 193 193 0
-4.1922 -7.9784 -3.4424 -0.210 -0.508 0.835 231 233 230 0
-4.2041 -7.9806 -3.4468 -0.210 -0.508 0.835 238 238 236 0
-4.2159 -7.9828 -3.4511 -0.210 -0.508 0.835 237 237 235 0
-4.2619 -7.9913 -3.4686 -0.367 -0.429 0.825 209 209 208 0
-4.2681 -7.9927 -3.4758 -0.572 -0.481 0.665 210 210 210 0
-4.2748 -7.9942 -3.4828 -0.716 -0.431 0.549 207 207 206 0
-4.2795 -7.9954 -3.4909 -0.675 -0.621 0.398 198 197 195 0
-4.2861 -7.9969 -3.4978 -0.634 -0.573 0.519 180 179 177 0
-4.2919 -7.9983 -3.5052 -0.509 -0.518 0.688 182 181 179 0
-4.4199 -8.0209 -3.5366 -0.616 -0.203 0.761 192 192 191 0
-4.4344 -8.0240 -3.5488 -0.755 -0.148 0.639 198 198 196 0
-4.4402 -8.0253 -3.5558 -0.640 -0.263 0.722 187 186 185 0
-4.4440 -8.0264 -3.5639 -0.723 -0.237 0.649 183 183 181 0
-4.4911 -8.0348 -3.5770 -0.740 -0.466 0.485 185 185 183 0
-4.4943 -8.0358 -3.5854 -0.872 -0.087 0.482 192 192 190 0
-4.4965 -8.0367 -3.5943 -0.797 0.035 0.604 202 202 200 0
-4.5018 -8.0380 -3.6013 -0.797 0.035 0.604 187 187 187 0
-4.5609 -8.0491 -3.6262 -0.954 -0.019 0.298 189 189 187 0
-4.5636 -8.0500 -3.6347 -0.657 -0.486 0.576 199 199 197 0
11.5253 -4.6474 9.2546 -0.183 -0.770 0.611 27 21 21 0
10.3455 -4.8790 8.6077 -0.208 -0.674 0.709 24 19 18 0
12.8367 -4.5764 6.7418 -0.426 -0.862 -0.274 55 55 54 0
12.6743 -4.6160 6.5194 -0.279 -0.908 0.314 72 72 72 0
12.8813 -4.5807 6.5395 -0.185 -0.752 0.633 76 76 76 0
12.6863 -4.6187 6.4373 -0.224 -0.712 0.666 79 79 79 0
12.5987 -4.6372 6.3681 -0.238 -0.681 0.693 81 81 81 0
12.8991 -4.5850 6.4150 -0.384 -0.006 0.923 84 84 84 0
12.5797 -4.6455 6.2770 -0.417 0.106 0.903 86 86 86 0
12.1466 -4.7267 6.1067 -0.442 0.182 0.878 87 87 87 0
11.9129 -4.7716 5.9964 -0.445 0.206 0.871 88 89 86 0
10.2698 -5.0898 5.1706 -0.779 -0.540 -0.319 82 82 82 0
10.0219 -5.1585 4.6861 0.091 -0.994 -0.057 76 76 76 0
10.4894 -5.0814 4.6889 0.189 -0.847 -0.497 74 74 74 0
9.5020 -5.2901 3.8902 -0.472 0.688 0.551 81 83 82 0
10.4590 -5.1449 3.6752 -0.558 0.313 -0.768 198 198 191 0
9.2047 -5.3763 3.2436 -0.412 -0.540 0.734 204 203 197 0
8.4865 -5.5065 3.0375 -0.295 0.068 0.953 208 208 200 0
8.5839 -5.4934 2.9853 -0.863 0.376 0.337 209 209 203 0
8.4047 -5.5268 2.9179 -0.913 -0.397 -0.095 212 211 206 0
8.4360 -5.5234 2.8886 -0.789 -0.455 0.413 213 212 207 0
8.4128 -5.5395 2.6756 -0.306 -0.356 0.883 228 227 222 0
7.9833 -5.6202 2.5019 -0.438 -0.244 0.865 216 215 210 0
7.8186 -5.6508 2.4417 -0.305 -0.223 0.926 208 208 200 0
7.5884 -5.6947 2.3385 -0.299 -0.161 0.941 202 202 194 0
7.4757 -5.7161 2.2880 -0.315 -0.305 0.899 201 200 193 0
7.3440 -5.7409 2.2350 -0.292 -0.413 0.862 201 201 193 0
7.2644 -5.7566 2.1903 -0.251 -0.678 0.691 199 199 192 0
7.1266 -5.7861 2.0725 -0.423 -0.681 0.598 199 198 193 0
6.9513 -5.8182 2.0153 -0.289 -0.521 0.803 201 200 195 0
6.8389 -5.8395 1.9675 -0.350 -0.318 0.881 200 199 194 0
6.4649 -5.9095 1.8217 -0.388 -0.820 0.422 191 190 185 0
4.2577 -6.3304 0.8256 -0.295 -0.785 -0.544 133 133 130 0
3.3399 -6.5093 0.3452 -0.685 -0.121 -0.718 224 223 218 0
2.9597 -6.5844 0.1291 -0.720 0.667 -0.192 220 218 213 0
-0.7017 -7.2055 -0.1866 -0.425 0.359 0.831 121 88 86 0
-0.7635 -7.2167 -0.2051 -0.504 0.359 0.785 127 96 93 0
-0.7868 -7.2216 -0.2228 -0.421 0.063 0.905 123 84 83 0
-0.9840 -7.2591 -0.3105 -0.379 -0.225 0.898 103 86 78 0
-1.0195 -7.2660 -0.3275 -0.369 -0.310 0.876 142 120 115 0
-1.0541 -7.2726 -0.3444 -0.369 -0.310 0.876 167 140 136 0
-1.1096 -7.2847 -0.3946 -0.966 -0.080 0.245 99 75 71 0
-1.1250 -7.2891 -0.4278 -0.899 -0.374 0.227 95 72 67 0
-1.1275 -7.2905 -0.4445 -0.987 0.054 0.151 92 72 67 0
-1.1363 -7.2977 -0.5442 -0.618 -0.711 0.336 116 100 95 0
-1.1273 -7.2972 -0.5610 -0.449 -0.883 0.135 117 104 96 0
-1.1297 -7.2985 -0.5776 -0.449 -0.883 0.135 123 110 103 0
-1.1309 -7.2997 -0.5942 -0.489 -0.752 -0.442 119 106 100 0
-1.0309 -7.2931 -0.7653 -0.374 -0.915 -0.152 119 107 102 0
-1.0210 -7.2924 -0.7826 -0.490 -0.803 -0.339 110 97 90 0
-1.0288 -7.2947 -0.7991 -0.474 -0.696 -0.539 102 87 80 0
-0.9670 -7.2886 -0.8700 -0.712 -0.383 -0.589 113 102 96 0
-1.0429 -7.3038 -0.9161 -0.732 -0.520 -0.440 120 110 103 0
-1.0242 -7.3017 -0.9342 -0.892 -0.401 -0.207 112 103 96 0
-1.0125 -7.3008 -0.9518 -0.769 -0.442 -0.461 151 145 137 0
-0.7944 -7.2677 -1.0010 -0.295 -0.842 -0.452 221 220 214 0
-0.2647 -7.2091 -1.4967 -0.314 -0.669 0.673 91 87 84 0
-0.3123 -7.2187 -1.5276 -0.159 -0.881 0.445 88 85 81 0
-2.9004 -7.7148 -2.7397 -0.461 -0.317 0.829 167 163 163 0
-3.3771 -7.8068 -2.9729 -0.642 0.099 0.760 243 244 239 0
-3.6573 -7.8614 -3.1207 -0.880 0.472 0.052 159 155 153 0
-3.6652 -7.8639 -3.1409 -0.851 -0.212 0.479 229 230 225 0
-3.6798 -7.8666 -3.1462 -0.821 -0.193 0.538 226 227 222 0
-3.8475 -7.9005 -3.2544 -0.918 -0.210 0.337 161 158 157 0
-3.8840 -7.9061 -3.2482 -0.732 -0.662 0.160 131 127 128 0
-3.8856 -7.9070 -3.2589 -0.732 -0.662 0.160 115 110 109 0
-3.8905 -7.9083 -3.2679 -0.562 -0.806 0.189 107 101 100 0
-3.8923 -7.9092 -3.2785 -0.455 -0.884 -0.112 115 110 108 0
-3.9557 -7.9218 -3.3152 -0.835 -0.421 0.353 229 230 225 0
-3.9829 -7.9287 -3.3578 -0.940 0.231 0.251 232 233 228 0
-4.1007 -7.9491 -3.3746 -0.604 -0.294 0.741 212 212 210 0
-4.1133 -7.9514 -3.3789 -0.709 -0.277 0.649 205 205 202 0
-4.1209 -7.9531 -3.3859 -0.900 -0.306 0.312 206 207 203 0
-4.1238 -7.9541 -3.3954 -0.900 -0.341 0.270 208 208 205 0
-4.1317 -7.9564 -3.4131 -0.855 -0.247 0.457 175 171 171 0
-4.2763 -7.9838 -3.4747 -0.674 -0.458 0.580 202 202 200 0
-4.2822 -7.9852 -3.4821 -0.553 -0.623 0.553 201 201 200 0
-4.2872 -7.9865 -3.4900 -0.675 -0.621 0.398 200 200 198 0
-4.2950 -7.9881 -3.4962 -0.463 -0.661 0.590 185 185 183 0
-4.3072 -7.9903 -3.5000 -0.280 -0.702 0.654 187 187 185 0
-4.3644 -8.0009 -3.5200 -0.542 -0.276 0.794 177 175 173 0
-4.4261 -8.0120 -3.5364 -0.688 -0.328 0.648 196 196 194 0
-4.4341 -8.0137 -3.5421 -0.789 -0.123 0.602 202 203 201 0
-4.4359 -8.0145 -3.5515 -0.850 -0.045 0.525 200 200 198 0
-4.4425 -8.0160 -3.5579 -0.747 -0.251 0.616 182 181 180 0
-4.4463 -8.0171 -3.5661 -0.715 -0.295 0.634 177 176 175 0
-4.4967 -8.0260 -3.5771 -0.740 -0.466 0.485 187 186 185 0
-4.4984 -8.0268 -3.5864 -0.841 -0.238 0.486 186 185 185 0
-4.4968 -8.0272 -3.5977 -0.860 -0.248 0.447 188 188 188 0
-4.5028 -8.0286 -3.6043 -0.939 -0.231 0.255 187 187 186 0
-4.5576 -8.0392 -3.6319 -0.467 -0.752 0.466 192 192 190 0
-4.5674 -8.0410 -3.6360 -0.291 -0.694 0.658 197 197 195 0
10.5742 -4.7935 8.7939 -0.181 -0.736 0.652 25 20 20 0
1.3164 -6.6200 3.8506 -0.820 0.553 0.145 40 41 41 0
12.8187 -4.5381 6.7408 -0.536 -0.825 -0.179 58 58 58 0
12.5863 -4.5909 6.4969 -0.222 -0.917 0.331 75 75 75 0
12.6043 -4.5901 6.4597 -0.251 -0.801 0.543 81 81 81 0
12.7417 -4.5672 6.4585 -0.217 -0.754 0.620 84 84 84 0
12.5514 -4.6047 6.3582 -0.210 -0.715 0.667 86 86 86 0
12.9060 -4.5420 6.4215 -0.395 0.086 0.915 87 87 87 0
12.6168 -4.5976 6.2923 -0.411 0.055 0.910 88 88 88 0
12.3426 -4.6504 6.1686 -0.402 -0.120 0.908 92 92 91 0
12.0789 -4.7012 6.0491 -0.438 0.087 0.895 93 93 90 0
12.2104 -4.6795 6.0456 -0.473 0.406 0.782 95 94 93 0
10.4773 -5.0150 5.2313 -0.585 0.139 -0.799 85 85 85 0
9.4580 -5.2243 4.5454 0.195 -0.878 -0.437 75 75 75 0
9.6266 -5.1959 4.5513 0.182 -0.929 -0.322 74 74 74 0
9.8445 -5.1586 4.5688 0.190 -0.911 -0.367 74 74 74 0
9.0360 -5.3402 3.7538 -0.272 0.254 0.928 80 82 81 0
10.6722 -5.0675 3.7589 -0.733 0.520 -0.438 197 197 190 0
10.6759 -5.0691 3.7205 -0.802 0.215 -0.557 199 199 193 0
8.7440 -5.4273 3.0870 -0.297 0.101 0.949 208 208 200 0
8.4918 -5.4780 2.9350 -0.812 0.277 0.514 212 211 206 0
8.5428 -5.4751 2.8389 -0.585 0.192 -0.788 218 217 212 0
8.3665 -5.5142 2.6691 -0.239 -0.384 0.892 229 228 222 0
8.0376 -5.5761 2.5459 -0.203 -0.697 0.688 214 213 207 0
7.9557 -5.5925 2.4986 -0.421 -0.472 0.775 209 209 201 0
7.7878 -5.6239 2.4379 -0.386 -0.076 0.919 205 205 197 0
7.1374 -5.7513 2.1073 -0.816 0.404 0.413 200 199 194 0
7.1069 -5.7585 2.0705 -0.728 0.297 0.618 201 200 195 0
6.4016 -5.8872 1.8759 -0.290 0.148 0.946 196 195 190 0
6.4975 -5.8722 1.8580 -0.098 -0.854 0.511 193 192 187 0
6.4076 -5.8897 1.8147 -0.536 -0.700 0.472 191 190 185 0
4.8290 -6.1971 1.0420 -0.369 0.075 0.926 135 135 133 0
4.2089 -6.3131 0.8214 -0.493 -0.337 -0.802 134 134 131 0
2.9492 -6.5628 0.1280 -0.951 0.104 0.291 211 208 203 0
2.8865 -6.5748 0.1012 -0.554 -0.832 0.023 197 194 187 0
-0.7845 -7.2048 -0.2235 -0.357 -0.081 0.931 123 93 90 0
-0.9938 -7.2447 -0.3113 -0.387 -0.277 0.879 112 94 89 0
-1.0277 -7.2513 -0.3283 -0.387 -0.277 0.879 100 82 76 0
-1.0625 -7.2581 -0.3452 -0.387 -0.228 0.894 133 116 110 0
-1.0976 -7.2649 -0.3620 -0.367 -0.226 0.902 148 134 127 0
-1.1154 -7.2688 -0.3787 -0.516 0.034 0.856 118 98 90 0
-1.1334 -7.2737 -0.4120 -0.925 -0.044 0.376 102 77 73 0
-1.1290 -7.2739 -0.4286 -0.985 -0.064 0.158 99 74 71 0
-1.1313 -7.2753 -0.4453 -0.936 -0.318 0.151 95 72 69 0
-1.1410 -7.2778 -0.4618 -0.815 -0.577 -0.044 91 71 68 0
-1.1476 -7.2799 -0.4784 -0.794 -0.607 -0.028 106 88 84 0
-1.1399 -7.2796 -0.4951 -0.686 -0.704 -0.184 100 82 78 0
-1.1428 -7.2810 -0.5117 -0.761 -0.638 0.119 91 73 70 0
-1.1521 -7.2835 -0.5282 -0.790 -0.377 0.483 101 81 78 0
-1.1542 -7.2848 -0.5447 -0.814 -0.498 0.300 118 100 95 0
-1.1563 -7.2861 -0.5613 -0.745 -0.657 0.119 117 103 96 0
-1.1634 -7.2883 -0.5777 -0.940 -0.330 -0.084 121 108 100 0
-1.1484 -7.2867 -0.5947 -0.871 -0.303 -0.388 118 105 99 0
-1.1405 -7.2864 -0.6116 -0.803 -0.375 -0.463 121 107 101 0
-1.1511 -7.2891 -0.6279 -0.707 -0.695 -0.127 108 93 86 0
-1.1140 -7.2840 -0.6457 -0.567 -0.823 0.020 111 97 89 0
-1.0600 -7.2828 -0.7819 -0.680 -0.435 -0.591 104 89 83 0
-1.0293 -7.2797 -0.8171 -0.557 -0.563 -0.611 98 83 76 0
-0.9791 -7.2745 -0.8706 -0.575 -0.559 -0.598 116 105 99 0
-0.9331 -7.2679 -0.8903 -0.339 -0.558 -0.758 117 106 100 0
-0.9241 -7.2674 -0.9079 -0.322 -0.626 -0.711 118 107 101 0
-0.8158 -7.2538 -0.9836 -0.186 -0.982 -0.039 197 193 186 0
0.1075 -7.1136 -1.2189 -0.912 0.095 -0.400 195 192 185 0
0.1265 -7.1127 -1.2587 -0.640 -0.299 -0.708 194 191 184 0
0.1346 -7.1125 -1.2785 -0.784 -0.563 -0.261 197 194 187 0
-2.9222 -7.7063 -2.7484 -0.499 -0.186 0.846 224 225 218 0
-3.6536 -7.8484 -3.1017 -0.759 -0.370 0.536 185 182 179 0
-3.6284 -7.8456 -3.1249 -0.591 -0.671 0.448 143 135 135 0
-3.6339 -7.8470 -3.1344 -0.591 -0.671 0.448 120 111 112 0
-3.6813 -7.8558 -3.1487 -0.737 -0.492 0.464 225 226 221 0
-3.8936 -7.8974 -3.2582 -0.450 -0.729 0.516 108 103 102 0
-3.9025 -7.8993 -3.2653 -0.562 -0.806 0.189 105 99 99 0
-3.9006 -7.8997 -3.2777 -0.603 -0.797 -0.040 119 114 111 0
-3.9793 -7.9151 -3.3179 -0.791 -0.590 -0.164 224 224 220 0
-3.9765 -7.9154 -3.3306 -0.804 -0.586 -0.101 223 223 219 0
-3.9736 -7.9156 -3.3434 -0.845 -0.505 -0.178 229 230 225 0
-3.9707 -7.9159 -3.3561 -0.845 -0.505 -0.178 229 229 224 0
-3.9905 -7.9193 -3.3573 -0.908 0.155 0.390 229 229 225 0
-4.0762 -7.9336 -3.3576 -0.783 -0.177 0.596 236 236 231 0
-4.1062 -7.9396 -3.3750 -0.686 -0.193 0.701 205 206 202 0
-4.1117 -7.9409 -3.3832 -0.832 -0.235 0.502 203 204 200 0
-4.1164 -7.9422 -3.3917 -0.832 -0.235 0.502 200 199 198 0
-4.1276 -7.9444 -3.3968 -0.900 -0.306 0.312 198 198 197 0
-4.2824 -7.9746 -3.4747 -0.849 -0.177 0.498 192 192 191 0
-4.2865 -7.9758 -3.4831 -0.593 -0.634 0.497 197 197 195 0
-4.2958 -7.9777 -3.4886 -0.522 -0.675 0.521 203 203 201 0
-4.3722 -7.9922 -3.5190 -0.482 -0.393 0.783 183 182 180 0
-4.4323 -8.0032 -3.5363 -0.815 -0.214 0.539 192 193 190 0
-4.4370 -8.0044 -3.5440 -0.857 -0.115 0.502 191 191 189 0
-4.4374 -8.0050 -3.5541 -0.842 -0.325 0.430 190 190 188 0
-4.4461 -8.0068 -3.5593 -0.697 -0.468 0.544 182 181 180 0
-4.4517 -8.0081 -3.5664 -0.739 -0.381 0.555 182 181 180 0
-4.5000 -8.0175 -3.5890 -0.875 -0.080 0.478 179 178 178 0
-4.5032 -8.0185 -3.5973 -0.716 -0.319 0.621 186 186 185 0
-4.5087 -8.0198 -3.6043 -0.716 -0.319 0.621 197 197 194 0
-4.5705 -8.0308 -3.6173 -0.721 -0.669 0.180 196 197 195 0
-4.5693 -8.0313 -3.6282 -0.813 -0.579 -0.057 191 192 190 0
-4.5772 -8.0329 -3.6335 -0.662 -0.526 0.534 190 190 188 0
1.7148 -6.5212 4.0485 -0.488 0.238 0.840 42 43 43 0
12.7494 -4.5094 6.7238 -0.899 0.372 -0.234 58 58 57 0
12.8356 -4.4958 6.7076 -0.396 -0.681 0.617 57 57 57 0
12.6695 -4.5342 6.5269 -0.220 -0.962 0.160 77 77 77 0
12.6736 -4.5359 6.4852 -0.236 -0.750 0.618 83 83 83 0
12.5638 -4.5588 6.4091 -0.186 -0.743 0.643 91 91 91 0
12.3654 -4.5981 6.3066 -0.210 -0.715 0.667 94 94 94 0
12.8431 -4.5144 6.3638 -0.410 0.097 0.907 95 94 95 0
11.1877 -4.8399 5.5512 -0.377 0.086 0.922 94 93 91 0
10.7164 -4.9314 5.3400 -0.432 -0.572 0.697 87 87 85 0
10.6601 -4.9440 5.2852 0.050 -0.758 -0.650 85 85 83 0
11.0831 -4.8707 5.3221 0.175 -0.739 -0.651 87 87 85 0
9.4885 -5.1769 4.6668 0.064 -0.882 -0.467 78 78 78 0
9.9033 -5.1683 3.6061 -0.007 -0.948 -0.319 194 194 187 0
9.9496 -5.1621 3.5776 0.024 -0.868 -0.495 199 200 194 0
9.8545 -5.1857 3.4458 -0.893 0.273 -0.358 207 206 201 0
9.6827 -5.2187 3.3752 -0.571 0.670 0.475 208 207 200 0
9.2731 -5.2964 3.2235 -0.340 0.156 0.927 207 206 200 0
8.4786 -5.4549 2.7941 -0.474 -0.520 0.710 223 222 217 0
8.4735 -5.4578 2.7582 -0.315 -0.553 0.771 227 226 221 0
8.1425 -5.5227 2.5986 -0.285 -0.396 0.873 215 215 209 0
7.9904 -5.5518 2.5394 -0.703 0.257 0.663 209 209 201 0
7.9283 -5.5648 2.4953 -0.671 0.221 0.708 207 207 199 0
7.7965 -5.5901 2.4403 -0.424 0.012 0.906 209 209 201 0
7.2534 -5.6959 2.1904 -0.607 0.457 0.650 211 210 205 0
7.2016 -5.7070 2.1501 -0.636 0.425 0.644 212 211 206 0
7.1631 -5.7157 2.1119 -0.655 0.384 0.651 208 207 202 0
7.1319 -5.7231 2.0749 -0.738 0.404 0.540 205 204 199 0
6.8800 -5.7712 1.9747 -0.477 0.276 0.835 198 197 192 0
6.3561 -5.8672 1.8393 -0.133 -0.776 0.616 192 191 186 0
6.2632 -5.8854 1.7959 -0.260 -0.957 0.127 191 190 185 0
6.1878 -5.9022 1.7244 -0.392 -0.133 0.910 191 190 185 0
4.2151 -6.2879 0.7948 -0.457 -0.639 -0.619 143 144 139 0
2.9369 -6.5415 0.1268 -0.455 -0.467 0.758 202 200 193 0
2.8548 -6.5570 0.0994 -0.348 -0.821 0.453 196 194 187 0
-0.7045 -7.1727 -0.1879 -0.307 -0.341 0.888 111 83 80 0
-0.7571 -7.1826 -0.2063 -0.353 -0.262 0.898 111 88 83 0
-0.7954 -7.1901 -0.2243 -0.310 -0.142 0.940 124 104 98 0
-1.0113 -7.2315 -0.3121 -0.354 -0.430 0.830 130 111 105 0
-1.0725 -7.2437 -0.3460 -0.415 -0.285 0.864 107 90 83 0
-1.1032 -7.2499 -0.3628 -0.415 -0.285 0.864 112 92 86 0
-1.1150 -7.2528 -0.3795 -0.495 -0.061 0.867 102 77 73 0
-1.1341 -7.2580 -0.4128 -0.922 0.037 0.385 102 78 73 0
-1.1301 -7.2583 -0.4295 -0.985 -0.064 0.158 102 77 73 0
-1.1396 -7.2608 -0.4461 -0.918 -0.218 0.331 97 73 69 0
-1.1566 -7.2656 -0.4791 -0.823 -0.562 -0.080 95 75 71 0
-1.1527 -7.2659 -0.4958 -0.753 -0.639 -0.157 105 87 83 0
-1.1545 -7.2671 -0.5124 -0.761 -0.638 0.119 96 78 74 0
-1.1588 -7.2688 -0.5290 -0.757 -0.429 0.494 98 77 74 0
-1.1633 -7.2705 -0.5455 -0.814 -0.498 0.300 109 89 84 0
-1.1533 -7.2717 -0.5956 -0.840 -0.103 -0.533 118 103 97 0
-1.1675 -7.2760 -0.6284 -0.854 -0.517 0.045 107 92 85 0
-1.1323 -7.2711 -0.6462 -0.582 -0.800 0.149 106 91 84 0
-1.1329 -7.2722 -0.6628 -0.623 -0.782 0.031 108 93 86 0
-0.9878 -7.2598 -0.8714 -0.632 -0.503 -0.590 116 104 98 0
-0.9723 -7.2582 -0.8892 -0.632 -0.503 -0.590 114 103 97 0
-0.9253 -7.2514 -0.9091 -0.427 -0.454 -0.782 120 109 103 0
-0.9166 -7.2510 -0.9268 -0.184 -0.977 -0.107 121 110 104 0
-0.8683 -7.2440 -0.9470 -0.318 -0.856 -0.409 120 110 104 0
-0.8491 -7.2418 -0.9655 -0.302 -0.864 -0.404 113 104 96 0
-0.8352 -7.2406 -0.9837 -0.336 -0.906 -0.259 126 119 111 0
-0.8660 -7.2466 -0.9988 -0.505 -0.768 0.395 212 209 203 0
0.1103 -7.0951 -1.2208 -0.912 0.095 -0.400 194 191 184 0
0.1237 -7.0940 -1.2411 -0.706 -0.685 -0.179 197 194 187 0
0.1289 -7.0942 -1.2607 -0.706 -0.685 -0.179 201 198 191 0
-0.2830 -7.1762 -1.4801 -0.596 -0.623 0.507 89 85 82 0
-3.6246 -7.8331 -3.1178 -0.302 -0.847 0.437 138 131 131 0
-3.6397 -7.8360 -3.1230 -0.621 -0.750 0.227 120 111 112 0
-3.6457 -7.8375 -3.1323 -0.610 -0.636 0.472 110 100 102 0
-3.6528 -7.8392 -3.1411 -0.484 -0.701 0.524 134 129 126 0
-3.7169 -7.8504 -3.1475 -0.232 -0.590 0.773 220 221 216 0
-3.9826 -7.9070 -3.3535 -0.672 -0.737 0.069 211 214 209 0
-4.1228 -7.9322 -3.3807 -0.796 -0.026 0.604 196 196 194 0
-4.1271 -7.9334 -3.3894 -0.929 -0.104 0.356 180 177 178 0
-4.1412 -7.9360 -3.3929 -0.771 -0.517 0.371 193 191 190 0
-4.1449 -7.9371 -3.4019 -0.766 -0.401 0.502 204 204 202 0
-4.1522 -7.9387 -3.4090 -0.453 -0.532 0.715 207 207 204 0
-4.2694 -7.9610 -3.4533 -0.794 0.103 0.600 195 195 194 0
-4.2856 -7.9651 -3.4764 -0.772 -0.132 0.622 188 187 185 0
-4.2950 -7.9670 -3.4818 -0.673 -0.218 0.707 198 198 196 0
-4.2995 -7.9682 -3.4899 -0.731 -0.276 0.624 206 206 204 0
-4.3635 -7.9799 -3.5065 -0.820 -0.188 0.541 201 204 200 0
-4.3688 -7.9813 -3.5140 -0.741 -0.329 0.585 201 202 199 0
-4.3751 -7.9827 -3.5209 -0.707 -0.209 0.675 178 176 175 0
-4.4369 -7.9941 -3.5371 -0.813 -0.351 0.464 188 187 185 0
-4.4392 -7.9950 -3.5461 -0.720 -0.108 0.686 188 188 186 0
-4.4418 -7.9959 -3.5550 -0.631 -0.177 0.756 189 189 187 0
-4.4513 -7.9978 -3.5598 -0.656 -0.064 0.752 195 195 193 0
-4.4579 -7.9993 -3.5662 -0.525 -0.272 0.806 197 197 194 0
-4.5001 -8.0073 -3.5822 -0.909 -0.277 0.311 184 184 182 0
-4.5016 -8.0081 -3.5916 -0.864 -0.253 0.436 185 185 183 0
-4.5064 -8.0093 -3.5990 -0.727 -0.418 0.545 186 186 185 0
-4.5137 -8.0109 -3.6048 -0.765 -0.179 0.619 198 199 196 0
-4.5737 -8.0218 -3.6189 -0.868 -0.377 0.323 208 211 208 0
-4.5759 -8.0227 -3.6277 -0.797 -0.604 -0.026 195 196 193 0
-4.5863 -8.0246 -3.6313 -0.668 -0.520 0.533 186 186 184 0
12.7001 -4.4771 6.7130 -0.778 0.483 -0.403 58 58 56 0
12.7956 -4.4616 6.6998 -0.771 -0.605 0.199 58 58 57 0
12.5441 -4.5163 6.4930 -0.157 -0.962 0.224 82 82 82 0
12.3376 -4.5600 6.3450 -0.170 -0.802 0.572 93 93 93 0
12.3734 -4.5557 6.3134 -0.170 -0.737 0.654 96 95 95 0
10.8016 -4.8777 5.3673 -0.290 -0.563 0.774 85 86 83 0
10.8121 -4.8849 5.2124 -0.523 0.636 0.567 87 87 85 0
9.5711 -5.1539 4.2092 -0.516 0.715 0.471 75 75 75 0
9.8545 -5.1474 3.4853 -0.990 0.124 0.070 209 209 203 0
9.7367 -5.1752 3.3499 -0.508 0.528 0.680 207 207 200 0
9.1735 -5.2793 3.2065 -0.288 -0.001 0.958 207 206 201 0
8.7860 -5.3536 3.0624 -0.149 -0.816 0.559 207 207 199 0
8.4397 -5.4182 2.9636 -0.965 0.120 0.233 209 209 203 0
8.6160 -5.3884 2.9604 -0.619 0.278 0.734 212 211 206 0
8.6199 -5.3938 2.8552 -0.737 -0.349 0.579 221 221 214 0
8.6198 -5.3958 2.8198 -0.318 -0.319 0.893 222 221 216 0
8.4476 -5.4289 2.7551 -0.306 -0.434 0.847 226 225 220 0
8.0208 -5.5136 2.5455 -0.844 0.290 0.451 210 210 202 0
7.2222 -5.6721 2.1540 -0.670 0.327 0.666 218 217 212 0
7.1729 -5.6827 2.1141 -0.722 0.372 0.584 213 212 207 0
7.1276 -5.6927 2.0750 -0.774 0.340 0.534 205 205 197 0
6.9966 -5.7179 2.0240 -0.495 0.318 0.809 200 199 194 0
4.3934 -6.2262 0.8912 -0.207 -0.481 0.852 133 133 131 0
3.8911 -6.3309 0.5575 -0.224 -0.579 0.784 197 197 189 0
3.5377 -6.3983 0.4312 -0.251 -0.249 0.935 221 220 215 0
2.8296 -6.5381 0.0977 -0.541 -0.747 0.387 195 195 189 0
-0.7732 -7.1688 -0.2073 -0.301 -0.445 0.843 100 79 75 0
-0.7987 -7.1741 -0.2250 -0.280 -0.298 0.913 142 126 121 0
-1.0347 -7.2194 -0.3130 -0.379 -0.471 0.796 130 110 104 0
-1.0556 -7.2239 -0.3299 -0.456 -0.311 0.834 112 91 86 0
-1.0781 -7.2287 -0.3468 -0.542 -0.215 0.813 103 81 76 0
-1.1013 -7.2336 -0.3636 -0.542 -0.215 0.813 107 86 81 0
-1.1165 -7.2372 -0.3803 -0.532 -0.056 0.845 105 82 77 0
-1.1306 -7.2405 -0.3970 -0.685 0.122 0.718 119 97 90 0
-1.1462 -7.2460 -0.4469 -0.679 -0.553 0.483 101 77 72 0
-1.1621 -7.2497 -0.4633 -0.610 -0.791 0.042 96 71 69 0
-1.1620 -7.2507 -0.4800 -0.610 -0.791 0.042 88 67 64 0
-1.1571 -7.2508 -0.4967 -0.543 -0.837 0.067 101 83 79 0
-1.1688 -7.2556 -0.5463 -0.659 -0.739 0.140 107 86 81 0
-1.1568 -7.2565 -0.5965 -0.815 -0.135 -0.563 122 107 100 0
-1.1748 -7.2605 -0.6126 -0.883 0.001 -0.470 122 107 100 0
-1.1725 -7.2610 -0.6293 -0.991 0.025 -0.132 107 92 85 0
-1.1454 -7.2574 -0.6468 -0.870 -0.481 -0.110 103 88 81 0
-1.1494 -7.2591 -0.6633 -0.623 -0.782 0.031 97 82 77 0
-1.1486 -7.2599 -0.6800 -0.600 -0.488 -0.634 115 102 94 0
-1.1189 -7.2568 -0.7146 -0.630 -0.507 -0.588 116 103 97 0
-0.9377 -7.2372 -0.9097 -0.311 -0.799 -0.514 112 101 95 0
-0.8999 -7.2329 -0.9463 -0.262 -0.895 -0.362 122 111 105 0
-0.8816 -7.2309 -0.9647 -0.302 -0.864 -0.404 117 107 101 0
-0.8669 -7.2304 -1.0001 -0.370 -0.924 -0.098 161 157 148 0
-0.3045 -7.1623 -1.4795 -0.539 -0.368 0.758 89 85 83 0
-1.8067 -7.4594 -2.1982 -0.900 -0.427 0.083 171 170 165 0
-3.3498 -7.7678 -2.9933 -0.798 0.309 0.516 211 210 206 0
-3.3533 -7.7690 -3.0044 -0.986 0.091 0.137 207 207 202 0
-3.3472 -7.7689 -3.0194 -0.706 -0.643 -0.295 227 228 223 0
-3.3411 -7.7687 -3.0344 -0.706 -0.643 -0.295 235 236 231 0
-3.3629 -7.7726 -3.0379 -0.342 -0.739 0.580 231 232 227 0
-3.6410 -7.8243 -3.1137 -0.376 -0.827 0.417 112 104 105 0
-3.6507 -7.8264 -3.1213 -0.621 -0.750 0.227 108 100 100 0
-3.6548 -7.8277 -3.1314 -0.656 -0.530 0.537 104 97 97 0
-3.6607 -7.8292 -3.1407 -0.512 -0.643 0.570 129 124 121 0
-3.6978 -7.8359 -3.1476 -0.705 -0.640 0.307 218 219 214 0
-3.8191 -7.8614 -3.2317 -0.935 0.164 0.316 209 210 204 0
-4.1401 -7.9256 -3.3969 -0.937 0.083 0.340 193 192 190 0
-4.2696 -7.9510 -3.4567 -0.821 0.050 0.569 182 181 182 0
-4.2998 -7.9577 -3.4826 -0.491 -0.354 0.796 192 192 190 0
-4.3573 -7.9686 -3.5030 -0.349 -0.510 0.787 188 188 186 0
-4.3678 -7.9707 -3.5075 -0.665 -0.373 0.647 193 194 192 0
-4.3738 -7.9721 -3.5146 -0.665 -0.373 0.647 199 200 197 0
-4.4409 -7.9849 -3.5382 -0.792 -0.270 0.548 185 185 184 0
-4.4424 -7.9857 -3.5478 -0.800 -0.065 0.596 187 187 185 0
-4.4458 -7.9868 -3.5562 -0.688 -0.146 0.710 193 193 191 0
-4.4528 -7.9883 -3.5624 -0.631 -0.177 0.756 207 207 204 0
-4.5075 -7.9987 -3.5813 -0.931 0.073 0.357 196 197 194 0
-4.5086 -7.9994 -3.5909 -0.871 -0.187 0.455 197 198 195 0
-4.5136 -8.0007 -3.5982 -0.782 -0.368 0.504 187 187 186 0
-4.5171 -8.0018 -3.6063 -0.865 -0.346 0.364 191 193 190 0
-4.5769 -8.0128 -3.6205 -0.919 -0.334 0.208 209 211 208 0
-4.5788 -8.0136 -3.6295 -0.919 -0.375 0.119 192 192 190 0
-4.5872 -8.0153 -3.6344 -0.666 -0.062 0.743 184 184 182 0
9.1275 -4.9710 8.0907 0.044 -0.938 -0.345 24 20 19 0
12.6862 -4.4406 6.6703 -0.627 -0.241 0.741 60 60 59 0
12.4316 -4.4964 6.4630 -0.159 -0.986 0.046 86 86 86 0
12.3387 -4.5189 6.3497 -0.181 -0.885 0.428 97 95 96 0
12.8876 -4.4274 6.2988 -0.144 -0.715 0.684 103 102 100 0
12.6665 -4.4791 6.0619 -0.374 -0.627 0.684 102 101 99 0
9.9278 -5.0062 5.0900 0.204 -0.920 -0.334 84 84 82 0
9.4871 -5.0996 4.7834 -0.776 0.535 0.334 79 79 78 0
10.3836 -5.0052 3.7457 -0.334 -0.035 0.942 191 189 182 0
9.8134 -5.1165 3.5167 -0.925 0.283 0.253 212 212 206 0
9.8002 -5.1211 3.4765 -0.736 0.143 0.662 213 212 207 0
9.7992 -5.1234 3.4387 -0.979 0.204 0.010 211 210 205 0
8.8860 -5.2990 3.1182 -0.290 -0.073 0.954 206 205 199 0
8.6076 -5.3621 2.8544 -0.868 0.067 0.492 220 219 214 0
8.5038 -5.3830 2.8012 -0.307 -0.349 0.886 223 222 217 0
8.3648 -5.4103 2.7423 -0.307 -0.349 0.886 226 225 220 0
8.0781 -5.4684 2.5903 -0.878 0.312 0.364 215 214 209 0
8.0474 -5.4759 2.5510 -0.913 0.339 -0.227 214 213 208 0
7.9261 -5.4999 2.4972 -0.676 -0.362 0.642 212 211 206 0
7.1868 -5.6471 2.1496 -0.785 -0.187 0.591 220 219 214 0
7.1679 -5.6524 2.1142 -0.636 -0.506 0.583 211 210 205 0
7.1657 -5.6546 2.0813 -0.887 0.368 0.281 203 203 195 0
7.1003 -5.6683 2.0395 -0.643 0.368 0.672 199 198 192 0
6.4701 -5.7873 1.8562 -0.772 0.346 0.534 191 190 185 0
6.1332 -5.8496 1.7796 -0.782 -0.213 0.586 191 190 185 0
6.1061 -5.8563 1.7454 -0.759 -0.145 0.634 191 190 185 0
3.8391 -6.3149 0.5536 -0.291 -0.388 0.874 197 197 189 0
3.7589 -6.3305 0.5222 -0.265 -0.385 0.884 201 201 193 0
2.8295 -6.5149 0.0970 -0.685 -0.266 0.678 190 189 183 0
-1.0528 -7.2064 -0.3138 -0.348 -0.518 0.781 94 70 66 0
-1.0677 -7.2099 -0.3307 -0.509 -0.366 0.780 100 75 71 0
-1.0933 -7.2153 -0.3476 -0.593 -0.485 0.643 100 75 71 0
-1.1111 -7.2193 -0.3644 -0.577 -0.314 0.754 130 111 105 0
-1.1269 -7.2230 -0.3811 -0.617 -0.384 0.687 105 85 78 0
-1.1371 -7.2257 -0.3977 -0.685 -0.158 0.712 100 75 70 0
-1.1519 -7.2292 -0.4143 -0.709 -0.158 0.687 101 76 71 0
-1.1580 -7.2322 -0.4476 -0.679 -0.553 0.483 104 80 75 0
-1.1740 -7.2359 -0.4641 -0.537 -0.834 0.123 100 76 72 0
-1.1807 -7.2380 -0.4806 -0.564 -0.811 0.155 90 69 65 0
-1.1762 -7.2382 -0.4973 -0.527 -0.847 0.076 99 81 76 0
-1.1802 -7.2398 -0.5138 -0.492 -0.857 0.154 123 104 97 0
-1.1751 -7.2447 -0.6136 -0.872 0.164 -0.461 120 103 96 0
-1.1743 -7.2455 -0.6303 -0.985 0.157 -0.068 106 90 84 0
-1.1623 -7.2444 -0.6473 -0.971 -0.182 -0.154 94 79 73 0
-1.1593 -7.2449 -0.6641 -0.929 -0.165 -0.331 107 93 87 0
-1.1290 -7.2426 -0.7153 -0.749 -0.258 -0.610 112 98 93 0
-1.1463 -7.2465 -0.7312 -0.497 -0.833 -0.241 119 106 98 0
-1.0221 -7.2323 -0.8550 -0.944 -0.105 -0.313 107 92 87 0
-0.9825 -7.2295 -0.9252 -0.371 -0.868 -0.331 118 107 101 0
-0.9517 -7.2253 -0.9443 -0.377 -0.583 -0.720 122 111 104 0
-0.9243 -7.2217 -0.9632 -0.339 -0.655 -0.675 119 108 102 0
-0.8875 -7.2175 -1.0000 -0.482 -0.702 -0.524 122 114 106 0
-0.4993 -7.1844 -1.5842 -0.608 -0.789 0.087 87 84 79 0
-3.2687 -7.7374 -2.9154 -0.381 -0.325 0.865 249 251 245 0
-3.3095 -7.7457 -2.9373 -0.427 -0.160 0.890 248 249 244 0
-3.3527 -7.7572 -3.0078 -0.986 0.091 0.137 210 209 205 0
-3.3544 -7.7582 -3.0196 -0.990 0.066 0.125 208 208 205 0
-3.3509 -7.7584 -3.0335 -0.706 -0.643 -0.295 228 229 224 0
-3.5501 -7.7963 -3.0968 -0.308 -0.580 0.754 216 217 212 0
-3.6680 -7.8184 -3.1287 -0.284 -0.341 0.896 103 97 96 0
-3.6781 -7.8206 -3.1360 -0.261 -0.551 0.793 147 143 141 0
-3.7047 -7.8251 -3.1358 -0.535 -0.573 0.621 206 207 202 0
-3.7124 -7.8269 -3.1442 -0.535 -0.573 0.621 221 222 217 0
-3.7193 -7.8286 -3.1528 -0.491 -0.435 0.754 226 227 222 0
-3.7080 -7.8283 -3.1817 -0.581 -0.208 0.787 230 231 226 0
-4.1173 -7.9095 -3.3683 -0.821 0.117 0.559 196 195 194 0
-4.1241 -7.9111 -3.3757 -0.862 0.174 0.475 197 197 195 0
-4.1298 -7.9125 -3.3838 -0.819 0.078 0.568 200 200 198 0
-4.1353 -7.9140 -3.3919 -0.787 -0.018 0.616 199 199 197 0
-4.1439 -7.9158 -3.3983 -0.867 -0.275 0.416 194 192 191 0
-4.1484 -7.9171 -3.4069 -0.761 -0.019 0.649 196 195 193 0
-4.1992 -7.9274 -3.4340 -0.529 -0.371 0.763 204 204 202 0
-4.2808 -7.9432 -3.4646 -0.730 0.107 0.675 188 187 186 0
-4.3679 -7.9602 -3.5004 -0.667 -0.312 0.676 182 180 179 0
-4.3722 -7.9614 -3.5084 -0.648 -0.260 0.716 191 190 188 0
-4.3790 -7.9630 -3.5151 -0.581 -0.284 0.763 198 199 197 0
-4.4437 -7.9755 -3.5401 -0.826 -0.075 0.559 197 197 195 0
-4.4493 -7.9775 -3.5577 -0.688 -0.146 0.710 191 191 189 0
-4.4579 -7.9793 -3.5629 -0.787 0.033 0.616 196 196 195 0
-4.5064 -7.9889 -3.5855 -0.930 -0.287 0.230 201 203 200 0
-4.5085 -7.9898 -3.5945 -0.730 -0.272 0.627 198 199 197 0
-4.5146 -7.9913 -3.6011 -0.627 -0.330 0.705 188 188 186 0
-4.5805 -8.0038 -3.6219 -0.919 -0.334 0.208 196 198 195 0
-4.5871 -8.0053 -3.6279 -0.798 -0.593 0.110 198 199 196 0
-4.5944 -8.0068 -3.6335 -0.571 -0.208 0.795 194 194 192 0
8.9600 -4.9713 7.9864 0.047 -0.995 0.090 24 20 19 0
4.6360 -5.9103 4.7368 -0.802 -0.521 -0.291 41 44 45 0
12.2437 -4.4888 6.4520 -0.025 -0.685 -0.728 78 78 78 0
12.2874 -4.4828 6.4232 -0.127 -0.933 -0.336 88 88 88 0
12.3777 -4.4680 6.4084 -0.238 -0.893 0.383 98 97 96 0
12.3429 -4.4771 6.3553 -0.240 -0.950 0.200 99 97 96 0
13.4557 -4.2744 6.5146 -0.175 -0.590 0.788 103 102 100 0
13.3188 -4.3031 6.4298 -0.333 -0.242 0.911 103 102 100 0
13.0356 -4.3597 6.3029 -0.131 -0.690 0.712 104 103 101 0
10.3892 -4.9669 3.7489 -0.336 -0.021 0.942 191 191 183 0
9.8315 -5.0769 3.5223 -0.782 0.533 0.323 206 205 199 0
9.7388 -5.0962 3.4664 -0.590 0.506 0.629 206 205 199 0
9.6747 -5.1103 3.4164 -0.517 0.528 0.674 205 204 197 0
8.9210 -5.2580 3.1264 -0.333 0.053 0.941 205 204 198 0
8.3803 -5.3618 2.9558 -0.218 -0.756 -0.618 209 209 202 0
8.1254 -5.4267 2.5993 -0.964 0.033 0.263 221 220 215 0
8.0469 -5.4431 2.5521 -0.956 0.206 0.209 217 216 211 0
7.9084 -5.4704 2.4954 -0.608 -0.341 0.717 218 217 212 0
7.6649 -5.5189 2.3890 -0.227 -0.604 0.764 213 212 207 0
7.2070 -5.6102 2.1861 -0.377 -0.530 0.760 226 225 220 0
7.1721 -5.6184 2.1483 -0.636 -0.506 0.583 216 215 210 0
7.0857 -5.6416 2.0057 -0.737 0.382 0.557 197 196 191 0
6.1164 -5.8233 1.7780 -0.695 -0.013 0.719 191 190 185 0
3.8131 -6.2944 0.5515 -0.344 -0.053 0.937 196 196 188 0
3.7318 -6.3103 0.5200 -0.353 -0.046 0.935 204 204 196 0
2.9695 -6.4641 0.1506 -0.266 -0.098 0.959 206 205 199 0
2.7465 -6.5076 0.0691 -0.983 0.169 0.067 162 162 155 0
-0.9899 -7.1774 -0.2803 -0.251 -0.415 0.875 97 73 69 0
-1.0668 -7.1927 -0.3147 -0.436 -0.373 0.819 97 72 68 0
-1.0804 -7.1960 -0.3315 -0.648 -0.171 0.742 97 72 68 0
-1.1683 -7.2181 -0.4484 -0.706 -0.424 0.568 113 90 85 0
-1.1798 -7.2210 -0.4649 -0.706 -0.424 0.568 103 80 75 0
-1.1991 -7.2253 -0.4812 -0.564 -0.811 0.155 91 70 66 0
-1.1963 -7.2258 -0.4979 -0.527 -0.847 0.076 96 77 72 0
-1.1991 -7.2272 -0.5144 -0.537 -0.834 0.123 128 109 102 0
-1.1980 -7.2280 -0.5310 -0.642 -0.758 0.113 134 115 108 0
-1.1938 -7.2282 -0.5477 -0.634 -0.763 -0.127 115 96 89 0
-1.1889 -7.2283 -0.5644 -0.690 -0.630 -0.356 105 86 80 0
-1.1859 -7.2288 -0.5811 -0.775 -0.548 -0.316 113 94 88 0
-1.1792 -7.2286 -0.5979 -0.775 -0.548 -0.316 116 97 91 0
-1.1789 -7.2295 -0.6146 -0.822 -0.223 -0.524 112 95 87 0
-1.1709 -7.2290 -0.6314 -0.918 -0.035 -0.396 92 78 74 0
-1.1636 -7.2288 -0.6483 -0.918 -0.035 -0.396 90 76 72 0
-1.1668 -7.2341 -0.7315 -0.370 -0.929 0.011 118 104 97 0
-1.1279 -7.2284 -0.7499 -0.653 -0.701 -0.288 104 89 83 0
-1.1203 -7.2281 -0.7670 -0.519 -0.660 -0.544 104 89 84 0
-0.9926 -7.2150 -0.9259 -0.527 -0.760 -0.381 117 106 99 0
-0.9871 -7.2151 -0.9433 -0.408 -0.619 -0.671 117 108 100 0
-0.9484 -7.2095 -0.9629 -0.339 -0.655 -0.675 116 106 100 0
-0.9273 -7.2069 -0.9815 -0.339 -0.669 -0.661 115 104 98 0
-0.9087 -7.2047 -0.9999 -0.504 -0.650 -0.569 106 97 89 0
-0.8917 -7.2028 -1.0184 -0.462 -0.740 -0.489 159 153 145 0
-1.5828 -7.3822 -2.0478 -0.676 -0.549 0.491 105 102 97 0
-1.8316 -7.4341 -2.1974 -0.575 -0.798 0.181 111 111 107 0
-1.5802 -7.3974 -2.3189 -0.188 -0.225 0.956 193 191 185 0
-3.0874 -7.6883 -2.8198 -0.430 -0.260 0.865 214 214 210 0
-3.3150 -7.7347 -2.9381 -0.411 -0.302 0.860 249 250 245 0
-3.3726 -7.7491 -3.0152 -0.906 -0.223 0.360 186 185 184 0
-3.3740 -7.7501 -3.0271 -0.887 -0.432 0.163 226 227 222 0
-3.7264 -7.8186 -3.1528 -0.880 -0.474 -0.034 229 230 225 0
-3.7234 -7.8188 -3.1660 -0.731 -0.680 -0.057 233 234 229 0
-3.7187 -7.8188 -3.1800 -0.891 -0.257 0.374 240 241 236 0
-3.7314 -7.8214 -3.1859 -0.847 0.277 0.453 249 250 245 0
-4.1180 -7.8992 -3.3714 -0.821 0.117 0.559 168 163 166 0
-4.1257 -7.9010 -3.3783 -0.933 0.103 0.344 194 194 191 0
-4.1350 -7.9030 -3.3844 -0.817 0.006 0.577 207 207 204 0
-4.1403 -7.9043 -3.3926 -0.690 -0.087 0.719 201 200 199 0
-4.1455 -7.9057 -3.4008 -0.793 -0.233 0.563 176 173 174 0
-4.1525 -7.9074 -3.4081 -0.672 -0.375 0.638 182 181 180 0
-4.1984 -7.9164 -3.4271 -0.433 -0.451 0.781 200 200 198 0
-4.3727 -7.9510 -3.5011 -0.854 0.018 0.519 178 176 176 0
-4.4430 -7.9657 -3.5441 -0.835 0.001 0.551 213 215 210 0
-4.5093 -7.9791 -3.5770 -0.913 -0.307 0.267 188 188 186 0
-4.5116 -7.9800 -3.5859 -0.913 -0.307 0.267 192 192 190 0
-4.5167 -7.9813 -3.5931 -0.807 -0.538 0.244 190 192 189 0
-4.5207 -7.9825 -3.6010 -0.789 -0.359 0.498 191 192 189 0
-4.5965 -7.9977 -3.6358 -0.653 -0.118 0.748 204 205 203 0
-2.2673 -7.1564 3.6997 -0.806 0.485 0.340 35 24 18 0
8.8162 -4.9613 7.9998 -0.184 -0.791 0.583 24 20 19 0
8.5843 -5.0100 7.8605 -0.184 -0.791 0.583 23 19 18 0
8.6091 -5.0071 7.8364 0.020 -0.983 0.183 24 20 19 0
12.1225 -4.4689 6.4610 -0.154 -0.569 -0.808 70 70 70 0
12.1311 -4.4697 6.4217 -0.045 -0.582 -0.812 80 80 80 0
12.2282 -4.4533 6.4094 -0.025 -0.607 -0.794 92 92 92 0
12.3593 -4.4304 6.4072 -0.066 -0.717 -0.694 98 98 97 0
12.4778 -4.4100 6.4007 -0.217 -0.885 -0.412 101 100 98 0
12.5137 -4.4153 6.1976 -0.202 -0.523 0.828 103 102 101 0
10.0458 -4.9171 5.0151 0.232 -0.847 -0.478 83 83 81 0
10.4205 -4.9236 3.7574 -0.413 0.237 0.879 189 189 180 0
10.1477 -4.9814 3.5868 -0.437 0.323 0.839 200 200 192 0
10.0106 -5.0092 3.5216 -0.462 0.357 0.812 201 201 193 0
9.7765 -5.0574 3.4004 -0.420 0.303 0.856 203 203 195 0
8.7524 -5.2568 3.0609 -0.642 0.307 0.702 208 207 201 0
8.5196 -5.3023 2.9828 -0.972 0.179 0.153 210 209 203 0
8.7863 -5.2567 2.9600 -0.022 -0.966 0.258 216 215 208 0
8.7400 -5.2674 2.9161 -0.022 -0.966 0.258 217 216 211 0
8.4715 -5.3213 2.7983 -0.385 -0.010 0.923 213 212 207 0
8.3294 -5.3497 2.7389 -0.367 -0.027 0.930 212 212 205 0
8.1996 -5.3758 2.6821 -0.434 0.026 0.900 214 214 208 0
8.1004 -5.3962 2.6308 -0.514 0.135 0.847 223 222 216 0
8.0956 -5.3990 2.5956 -0.727 0.179 0.663 221 221 215 0
7.9813 -5.4222 2.5425 -0.762 0.210 0.613 219 218 213 0
7.5888 -5.5006 2.3781 -0.308 -0.375 0.874 217 217 211 0
7.2505 -5.5707 2.1936 -0.227 -0.883 0.411 217 216 211 0
7.2169 -5.5788 2.1558 -0.387 -0.902 0.192 207 206 201 0
7.2168 -5.5863 2.0248 -0.705 0.586 0.399 196 195 190 0
6.0300 -5.8097 1.7669 -0.212 -0.943 -0.258 191 190 185 0
3.6312 -6.3049 0.4872 -0.504 0.226 0.833 206 205 198 0
3.2308 -6.3883 0.2609 -0.350 -0.816 0.460 226 225 220 0
-0.8417 -7.1310 -0.2105 -0.237 -0.667 0.707 133 113 108 0
-1.1003 -7.1815 -0.2988 -0.140 -0.625 0.768 97 73 69 0
-1.0870 -7.1811 -0.3323 -0.708 -0.177 0.684 96 72 68 0
-1.1027 -7.1848 -0.3492 -0.742 -0.227 0.630 107 78 75 0
-1.1142 -7.1878 -0.3659 -0.707 -0.172 0.686 112 86 82 0
-1.1296 -7.1915 -0.3827 -0.707 -0.172 0.686 126 107 101 0
-1.1907 -7.2061 -0.4490 -0.648 -0.456 0.610 116 92 88 0
-1.2011 -7.2088 -0.4655 -0.743 -0.324 0.586 116 93 89 0
-1.2144 -7.2121 -0.4819 -0.791 -0.591 0.159 102 80 75 0
-1.2173 -7.2136 -0.4984 -0.634 -0.749 0.194 90 71 66 0
-1.2202 -7.2150 -0.5150 -0.651 -0.738 0.174 104 85 80 0
-1.2154 -7.2151 -0.5316 -0.785 -0.615 0.075 126 107 100 0
-1.2152 -7.2161 -0.5482 -0.737 -0.659 -0.152 110 90 85 0
-1.2018 -7.2147 -0.5651 -0.723 -0.585 -0.367 92 74 70 0
-1.2013 -7.2156 -0.5817 -0.701 -0.578 -0.418 114 95 90 0
-1.1915 -7.2148 -0.5986 -0.727 -0.628 -0.278 117 98 91 0
-1.1897 -7.2155 -0.6153 -0.783 -0.242 -0.574 103 86 80 0
-1.1654 -7.2132 -0.6493 -0.783 -0.242 -0.574 91 77 73 0
-1.1216 -7.2094 -0.7178 -0.784 0.551 -0.286 115 101 96 0
-1.1746 -7.2195 -0.7323 -0.705 -0.664 0.249 117 102 96 0
-0.9959 -7.2003 -0.9441 -0.374 -0.623 -0.687 120 110 102 0
-0.9599 -7.1951 -0.9635 -0.314 -0.777 -0.546 118 107 101 0
-0.9373 -7.1922 -0.9822 -0.357 -0.743 -0.567 121 110 104 0
-0.9297 -7.1919 -0.9999 -0.376 -0.827 -0.417 112 102 94 0
-0.9120 -7.1899 -1.0183 -0.349 -0.836 -0.424 123 116 107 0
0.0896 -7.0225 -1.1685 -0.491 -0.565 0.663 195 191 185 0
0.0709 -7.0268 -1.1861 -0.491 -0.565 0.663 197 193 188 0
0.0524 -7.0311 -1.2036 -0.641 -0.629 0.441 196 192 185 0
-1.8475 -7.4221 -2.1962 -0.523 -0.841 0.135 130 130 126 0
-1.8483 -7.4231 -2.2114 -0.625 -0.779 -0.049 136 136 130 0
-1.6440 -7.3936 -2.3221 0.076 -0.674 0.735 199 197 192 0
-2.9183 -7.6414 -2.7376 -0.557 -0.120 0.822 207 206 201 0
-3.1804 -7.6978 -2.9174 -0.405 -0.461 0.789 210 209 205 0
-3.1942 -7.7006 -2.9249 -0.532 -0.457 0.713 207 206 202 0
-3.2066 -7.7033 -2.9329 -0.495 -0.549 0.674 203 202 198 0
-3.3081 -7.7210 -2.9313 -0.441 -0.164 0.883 232 233 228 0
-3.3438 -7.7308 -2.9925 -0.589 -0.430 0.684 203 202 200 0
-3.3527 -7.7329 -3.0014 -0.589 -0.430 0.684 184 183 182 0
-3.3703 -7.7363 -3.0068 -0.515 -0.179 0.838 198 199 196 0
-3.5720 -7.7767 -3.0936 -0.331 -0.498 0.801 213 213 211 0
-3.7460 -7.8097 -3.1352 -0.956 0.246 0.161 228 229 224 0
-3.7477 -7.8107 -3.1462 -0.856 -0.224 -0.467 237 238 233 0
-3.7389 -7.8100 -3.1621 -0.852 -0.259 -0.456 243 243 238 0
-3.7260 -7.8088 -3.1799 -0.999 -0.028 -0.037 246 247 242 0
-3.7234 -7.8091 -3.1929 -0.924 -0.016 0.381 249 250 245 0
-4.1184 -7.8889 -3.3745 -0.871 -0.099 0.481 180 177 178 0
-4.1271 -7.8908 -3.3810 -0.890 0.042 0.454 197 196 192 0
-4.1356 -7.8927 -3.3875 -0.780 -0.119 0.615 202 202 199 0
-4.1428 -7.8944 -3.3947 -0.595 -0.287 0.751 200 200 199 0
-4.1505 -7.8961 -3.4016 -0.535 -0.304 0.788 185 183 182 0
-4.2052 -7.9072 -3.4268 -0.467 -0.502 0.728 191 191 189 0
-4.2160 -7.9094 -3.4318 -0.498 -0.454 0.739 201 201 199 0
-4.2742 -7.9215 -3.4645 -0.512 -0.314 0.799 207 207 203 0
-4.2881 -7.9241 -3.4675 -0.615 -0.150 0.774 193 193 192 0
-4.3721 -7.9404 -3.4943 -0.701 -0.318 0.639 202 202 200 0
-4.3782 -7.9419 -3.5014 -0.739 -0.255 0.623 194 194 192 0
-4.3825 -7.9431 -3.5095 -0.681 -0.384 0.624 194 195 190 0
-4.3898 -7.9448 -3.5158 -0.611 -0.329 0.720 194 195 190 0
-4.4471 -7.9565 -3.5452 -0.883 0.052 0.466 199 200 196 0
-4.4509 -7.9577 -3.5533 -0.768 -0.093 0.634 189 189 188 0
-4.5115 -7.9704 -3.5895 -0.613 -0.427 0.665 192 192 190 0
-4.5193 -7.9721 -3.5951 -0.598 -0.435 0.674 197 198 195 0
-4.5265 -7.9737 -3.6010 -0.670 -0.213 0.711 205 207 203 0
-4.5862 -7.9850 -3.6153 -0.829 -0.352 0.434 192 192 190 0
-4.5916 -7.9863 -3.6221 -0.669 -0.325 0.668 192 192 190 0
-4.5998 -7.9881 -3.6272 -0.630 -0.177 0.756 202 203 201 0
4.4960 -5.8859 4.6670 -0.103 -0.849 -0.518 40 41 43 0
12.4231 -4.3669 6.6019 -0.386 -0.283 0.878 61 60 60 0
12.0649 -4.4418 6.4057 -0.217 -0.241 -0.946 80 80 80 0
12.4060 -4.3801 6.4260 -0.072 -0.449 -0.890 100 99 99 0
12.5253 -4.3593 6.4196 -0.093 -0.398 -0.913 103 102 100 0
12.6148 -4.3443 6.4037 -0.092 -0.421 -0.903 103 102 100 0
12.2198 -4.4310 6.1154 0.215 -0.854 -0.473 103 102 101 0
12.4828 -4.3824 6.1499 0.220 -0.841 -0.493 102 101 100 0
12.4534 -4.3905 6.0986 0.154 -0.887 -0.436 101 99 100 0
10.1314 -4.8659 5.0034 -0.023 -0.734 -0.679 82 82 82 0
10.4771 -4.8754 3.7710 -0.413 0.237 0.879 190 190 181 0
10.2734 -4.9184 3.6523 -0.448 0.038 0.893 197 197 189 0
10.1551 -4.9430 3.5902 -0.425 -0.081 0.902 199 199 191 0
10.0706 -4.9612 3.5352 -0.505 -0.125 0.854 199 199 191 0
10.0225 -4.9725 3.4877 -0.735 -0.226 0.640 200 200 192 0
8.6432 -5.2430 3.0424 -0.840 -0.084 0.536 208 207 202 0
8.5412 -5.2642 2.9883 -0.966 0.026 0.256 210 210 204 0
8.5359 -5.2672 2.9520 -0.267 -0.933 0.239 213 213 205 0
8.5027 -5.2796 2.8403 -0.311 -0.601 0.737 212 211 206 0
8.4567 -5.2902 2.7971 -0.397 -0.028 0.918 208 208 201 0
8.3253 -5.3169 2.7395 -0.397 -0.028 0.918 205 206 198 0
8.1911 -5.3440 2.6819 -0.454 0.051 0.890 208 208 202 0
8.1163 -5.3600 2.6348 -0.514 0.135 0.847 220 219 213 0
8.0913 -5.3667 2.5961 -0.658 0.054 0.751 223 222 216 0
7.9382 -5.3973 2.5367 -0.484 -0.293 0.824 223 222 217 0
7.7427 -5.4358 2.4709 -0.477 -0.282 0.832 224 223 218 0
7.6476 -5.4555 2.4220 -0.287 -0.414 0.864 221 220 215 0
7.5573 -5.4743 2.3742 -0.254 -0.475 0.843 216 215 209 0
7.4362 -5.4988 2.3219 -0.263 -0.488 0.832 212 212 204 0
7.2051 -5.5475 2.1877 -0.420 -0.779 0.466 206 205 199 0
7.3906 -5.5225 2.0499 -0.767 -0.444 -0.463 196 195 190 0
5.8898 -5.8064 1.7487 -0.336 -0.476 -0.813 191 190 185 0
-1.1293 -7.1725 -0.3332 -0.985 -0.121 0.126 98 74 68 0
-1.1311 -7.1738 -0.3500 -0.994 -0.084 -0.064 100 73 69 0
-1.1448 -7.1772 -0.3667 -0.777 -0.484 0.401 120 91 88 0
-1.1468 -7.1785 -0.3834 -0.797 -0.368 0.478 124 103 97 0
-1.1557 -7.1811 -0.4001 -0.797 -0.368 0.478 130 109 104 0
-1.1711 -7.1848 -0.4167 -0.734 -0.157 0.661 98 75 70 0
-1.1827 -7.1878 -0.4333 -0.742 -0.212 0.636 104 79 75 0
-1.2102 -7.1946 -0.4663 -0.695 -0.399 0.598 125 103 98 0
-1.2225 -7.1977 -0.4827 -0.625 -0.457 0.633 123 100 97 0
-1.2529 -7.2050 -0.5153 -0.467 -0.755 0.461 108 86 82 0
-1.2461 -7.2047 -0.5320 -0.568 -0.817 -0.095 131 108 102 0
-1.2428 -7.2051 -0.5486 -0.568 -0.817 -0.095 125 104 98 0
-1.2338 -7.2054 -0.5819 -0.334 -0.709 -0.621 109 91 85 0
-1.1891 -7.1994 -0.6163 -0.668 -0.227 -0.709 111 92 87 0
-1.0549 -7.1875 -0.8231 -0.691 0.032 -0.722 121 108 100 0
-1.0469 -7.1871 -0.8405 -0.641 -0.096 -0.762 117 105 99 0
-1.0270 -7.1846 -0.8585 -0.913 -0.403 0.067 120 108 102 0
-1.0502 -7.1916 -0.9080 -0.639 -0.714 -0.286 107 92 85 0
-0.9879 -7.1837 -0.9630 -0.369 -0.777 -0.510 119 108 101 0
-0.9635 -7.1804 -0.9817 -0.463 -0.616 -0.637 117 106 100 0
-0.9471 -7.1786 -1.0000 -0.586 -0.594 -0.552 114 103 95 0
-0.9201 -7.1749 -1.0191 -0.558 -0.604 -0.569 110 102 93 0
-1.6402 -7.3770 -2.3098 0.025 -0.675 0.737 209 206 201 0
-3.1713 -7.6835 -2.9111 -0.504 -0.202 0.840 204 203 199 0
-3.2045 -7.6901 -2.9240 -0.547 -0.324 0.772 205 205 201 0
-3.2162 -7.6927 -2.9323 -0.349 -0.396 0.849 212 212 208 0
-3.3512 -7.7201 -2.9926 -0.512 -0.641 0.571 179 176 176 0
-3.3700 -7.7245 -3.0100 -0.588 -0.358 0.725 208 209 205 0
-3.4085 -7.7325 -3.0315 -0.232 -0.553 0.800 228 229 224 0
-3.7487 -7.7990 -3.1372 -0.980 -0.082 -0.183 233 234 229 0
-3.7410 -7.7992 -3.1644 -0.852 -0.259 -0.456 240 241 236 0
-3.7300 -7.7983 -3.1813 -0.913 -0.366 -0.181 238 239 234 0
-3.7318 -7.7992 -3.1923 -0.937 -0.331 0.113 237 238 233 0
-3.7346 -7.8003 -3.2028 -0.997 -0.059 -0.041 236 237 232 0
-4.1248 -7.8795 -3.3746 -0.796 -0.079 0.601 198 196 194 0
-4.1306 -7.8810 -3.3826 -0.781 -0.058 0.622 188 184 184 0
-4.1411 -7.8832 -3.3880 -0.754 -0.279 0.595 194 192 191 0
-4.1480 -7.8848 -3.3953 -0.518 -0.360 0.776 199 199 196 0
-4.1563 -7.8867 -3.4019 -0.535 -0.304 0.788 205 206 201 0
-4.2154 -7.8985 -3.4246 -0.498 -0.454 0.739 206 206 204 0
-4.2234 -7.9003 -3.4311 -0.498 -0.454 0.739 201 201 199 0
-4.2787 -7.9120 -3.4655 -0.433 -0.409 0.804 199 198 196 0
-4.2889 -7.9141 -3.4705 -0.398 -0.401 0.825 176 174 175 0
-4.3767 -7.9312 -3.4952 -0.568 -0.381 0.729 208 207 205 0
-4.3805 -7.9323 -3.5036 -0.680 -0.445 0.583 206 207 205 0
-4.3874 -7.9339 -3.5102 -0.801 -0.515 0.306 192 189 188 0
-4.3951 -7.9356 -3.5162 -0.611 -0.329 0.720 184 181 180 0
-4.4480 -7.9469 -3.5482 -0.774 -0.079 0.629 190 190 188 0
-4.5172 -7.9609 -3.5793 -0.858 -0.441 0.262 189 189 188 0
-4.5194 -7.9619 -3.5883 -0.858 -0.441 0.262 195 195 194 0
-4.5254 -7.9633 -3.5950 -0.598 -0.435 0.674 203 203 201 0
-4.5848 -7.9753 -3.6198 -0.676 -0.109 0.728 202 202 200 0
-4.5964 -7.9775 -3.6227 -0.669 -0.325 0.668 190 190 188 0
-4.6094 -7.9805 -3.6349 -0.453 -0.298 0.840 197 197 196 0
4.8496 -5.6286 7.5753 -0.485 -0.668 0.564 33 22 16 0
4.9963 -5.5994 7.6264 0.075 -0.980 -0.182 34 23 17 0
5.0149 -5.5971 7.6081 0.095 -0.976 -0.196 35 24 18 0
12.3268 -4.3446 6.5763 -0.334 -0.373 0.866 62 61 61 0
12.0342 -4.4048 6.4426 -0.934 0.108 -0.340 72 72 72 0
12.0289 -4.4082 6.3990 -0.508 0.058 -0.859 84 84 84 0
12.1253 -4.3916 6.3867 -0.557 -0.055 -0.828 96 95 93 0
12.1753 -4.3842 6.3599 -0.996 -0.003 0.093 104 102 103 0
12.1968 -4.3824 6.3242 -0.978 -0.057 0.201 103 102 100 0
12.6082 -4.3039 6.4061 -0.150 -0.312 -0.938 104 103 101 0
12.0309 -4.4295 6.0220 0.248 -0.846 -0.471 102 101 99 0
12.1900 -4.4008 6.0262 0.121 -0.837 -0.533 101 99 99 0
11.2050 -4.6079 5.4978 -0.410 0.439 0.799 87 87 85 0
11.0942 -4.6342 5.3866 -0.364 0.257 0.895 84 84 84 0
10.0244 -4.9265 3.6426 -0.451 0.150 0.880 195 195 187 0
10.0155 -4.9348 3.5264 -0.348 -0.264 0.900 198 198 190 0
9.5737 -5.0212 3.4024 -0.131 -0.763 0.633 200 200 192 0
9.3402 -5.0678 3.3201 -0.161 -0.640 0.751 203 202 195 0
8.5569 -5.2272 2.9927 -0.904 0.114 0.411 210 210 202 0
8.6091 -5.2193 2.9667 -0.145 -0.781 0.608 215 215 208 0
8.4152 -5.2622 2.8264 -0.355 -0.628 0.692 217 216 210 0
8.3075 -5.2866 2.7378 -0.403 -0.079 0.912 208 209 202 0
8.1437 -5.3196 2.6752 -0.416 -0.293 0.861 214 213 208 0
8.0513 -5.3390 2.6251 -0.370 -0.281 0.885 224 223 218 0
8.0188 -5.3472 2.5853 -0.390 -0.396 0.831 229 228 223 0
7.9029 -5.3710 2.5321 -0.376 -0.434 0.819 226 225 219 0
7.7125 -5.4089 2.4672 -0.397 -0.288 0.872 225 225 218 0
7.5934 -5.4333 2.4144 -0.315 -0.401 0.860 223 223 216 0
7.4887 -5.4550 2.3644 -0.254 -0.475 0.843 212 211 205 0
7.3761 -5.4781 2.3135 -0.256 -0.494 0.831 206 205 200 0
7.2048 -5.5142 2.2213 -0.417 -0.668 0.616 198 197 192 0
7.2061 -5.5158 2.1887 -0.749 -0.602 0.274 199 198 193 0
5.9362 -5.7703 1.7252 -0.347 -0.398 -0.849 191 190 185 0
4.1662 -6.1370 0.8707 -0.897 0.101 0.431 134 134 132 0
3.1168 -6.3622 0.2294 -0.369 0.254 0.894 221 220 215 0
-0.8204 -7.0920 -0.1767 -0.196 -0.497 0.845 114 98 93 0
-0.8938 -7.1063 -0.1954 -0.298 -0.590 0.750 115 88 85 0
-1.0631 -7.1417 -0.2831 -0.248 -0.599 0.762 99 74 70 0
-1.0294 -7.1366 -0.2997 -0.444 -0.229 0.866 105 80 75 0
-1.0608 -7.1432 -0.3169 -0.622 -0.443 0.645 102 76 71 0
-1.1444 -7.1611 -0.3675 -0.673 -0.494 0.551 117 86 83 0
-1.1559 -7.1641 -0.3842 -0.673 -0.494 0.551 119 90 86 0
-1.1673 -7.1671 -0.4009 -0.673 -0.494 0.551 130 107 102 0
-1.1765 -7.1698 -0.4175 -0.652 -0.370 0.662 108 84 80 0
-1.1914 -7.1734 -0.4341 -0.675 -0.467 0.572 102 75 71 0
-1.2190 -7.1802 -0.4670 -0.695 -0.399 0.598 125 101 97 0
-1.2337 -7.1838 -0.4834 -0.555 -0.509 0.658 120 96 93 0
-1.2449 -7.1925 -0.5991 -0.314 -0.700 -0.641 108 88 85 0
-1.1974 -7.1850 -0.6171 -0.505 -0.275 -0.818 113 94 88 0
-1.1675 -7.1806 -0.6347 -0.544 -0.178 -0.820 110 91 85 0
-1.1411 -7.1769 -0.6522 -0.523 -0.146 -0.840 89 73 69 0
-1.1261 -7.1772 -0.7031 -0.975 0.215 -0.050 120 107 101 0
-1.0139 -7.1661 -0.8605 -0.953 0.261 0.156 125 112 107 0
-1.0195 -7.1729 -0.9622 -0.470 -0.626 -0.622 117 106 100 0
-0.9992 -7.1704 -0.9806 -0.459 -0.506 -0.730 119 108 102 0
-0.9785 -7.1677 -0.9992 -0.501 -0.483 -0.718 112 102 94 0
-0.9151 -7.1576 -1.0209 -0.599 -0.261 -0.757 109 99 90 0
0.1743 -6.9756 -1.2561 -0.220 -0.283 0.933 189 184 178 0
-1.8792 -7.3989 -2.2092 -0.621 -0.752 0.221 122 121 118 0
-3.1218 -7.6576 -2.8291 -0.634 -0.177 0.753 143 138 139 0
-3.2119 -7.6792 -2.9242 -0.658 -0.178 0.732 217 217 212 0
-3.3627 -7.7101 -2.9911 -0.560 -0.634 0.534 196 197 194 0
-3.3698 -7.7119 -3.0007 -0.560 -0.634 0.534 212 212 208 0
-3.3786 -7.7140 -3.0096 -0.561 -0.556 0.613 212 213 208 0
-3.7491 -7.7880 -3.1402 -0.972 -0.067 -0.226 237 238 233 0
-3.7430 -7.7884 -3.1667 -0.852 -0.259 -0.456 227 226 223 0
-3.7337 -7.7877 -3.1828 -0.717 -0.696 -0.043 206 204 200 0
-3.7400 -7.7893 -3.1917 -0.424 -0.869 0.256 191 188 185 0
-3.7437 -7.7906 -3.2018 -0.400 -0.916 0.019 182 179 175 0
-3.7376 -7.7903 -3.2165 -0.796 -0.559 -0.234 179 176 172 0
-3.7357 -7.7921 -3.2529 -0.939 0.149 -0.310 235 236 231 0
-3.7463 -7.7944 -3.2597 -0.994 0.007 -0.106 238 238 233 0
-4.1348 -7.8712 -3.3837 -0.721 -0.242 0.650 175 171 173 0
-4.1466 -7.8736 -3.3885 -0.680 -0.322 0.659 192 190 189 0
-4.2219 -7.8892 -3.4245 -0.603 -0.474 0.641 203 203 200 0
-4.2284 -7.8908 -3.4318 -0.603 -0.474 0.641 188 186 187 0
-4.2868 -7.9031 -3.4644 -0.385 -0.480 0.788 192 191 191 0
